# .PCD v0.7 - Point Cloud Data file format
VERSION 0.7
FIELDS x y z
SIZE 4 4 4
TYPE F F F
COUNT 1 1 1
WIDTH 1291
HEIGHT 1
VIEWPOINT 0 0 0 1 0 0 0
POINTS 1291
DATA ascii
0.033813477 -0.022384644 -0.53076172
0.036407471 -0.022460938 -0.53271484
0.0390625 -0.02255249 -0.53466797
0.041717529 -0.022628784 -0.53662109
0.044403076 -0.022720337 -0.5390625
0.047088623 -0.02281189 -0.54101562
0.049804688 -0.022888184 -0.54296875
0.052520752 -0.022979736 -0.54492188
0.055267334 -0.02305603 -0.546875
0.058044434 -0.023147583 -0.54882812
0.060852051 -0.023223877 -0.55078125
0.063720703 -0.023361206 -0.55371094
0.066589355 -0.0234375 -0.55615234
0.069396973 -0.023529053 -0.55810547
0.07244873 -0.023651123 -0.56103516
0.075317383 -0.023742676 -0.56298828
0.07824707 -0.02381897 -0.56494141
0.081176758 -0.023910522 -0.56689453
0.084106445 -0.023986816 -0.56884766
0.087036133 -0.024078369 -0.57080078
0.090026855 -0.024154663 -0.57275391
0.093078613 -0.024246216 -0.57519531
0.09588623 -0.024291992 -0.57617188
0.098754883 -0.02432251 -0.57714844
-0.036743164 -0.027542114 -0.58789062
-0.033935547 -0.027496338 -0.58691406
-0.031158447 -0.027450562 -0.5859375
-0.028320312 -0.027359009 -0.58398438
-0.025497437 -0.027267456 -0.58203125
-0.022659302 -0.027114868 -0.57910156
-0.019821167 -0.026931763 -0.57519531
-0.017044067 -0.026794434 -0.57177734
-0.014297485 -0.026657104 -0.56884766
-0.011573792 -0.026504517 -0.56591797
-0.0088653564 -0.026321411 -0.56201172
-0.0062026978 -0.026184082 -0.55908203
-0.003572464 -0.026031494 -0.55615234
-0.00096893311 -0.025894165 -0.55273438
0.0016040802 -0.02571106 -0.54882812
0.0041389465 -0.025527954 -0.54492188
0.0066490173 -0.025375366 -0.54199219
0.009147644 -0.025283813 -0.54003906
0.011604309 -0.025146484 -0.53662109
0.014060974 -0.025054932 -0.53466797
0.016494751 -0.024963379 -0.53271484
0.018920898 -0.024856567 -0.53076172
0.021362305 -0.024810791 -0.52978516
0.023788452 -0.024765015 -0.52880859
0.026260376 -0.024765015 -0.52880859
0.0287323 -0.024765015 -0.52880859
0.03125 -0.024810791 -0.52978516
0.033874512 -0.024917603 -0.53173828
0.036407471 -0.024963379 -0.53271484
0.0390625 -0.025054932 -0.53466797
0.041717529 -0.025146484 -0.53662109
0.044403076 -0.025238037 -0.5390625
0.047088623 -0.02532959 -0.54101562
0.049804688 -0.025421143 -0.54296875
0.052520752 -0.025527954 -0.54492188
0.055267334 -0.025619507 -0.546875
0.058166504 -0.025756836 -0.54980469
0.060943604 -0.025848389 -0.55175781
0.063720703 -0.025939941 -0.55371094
0.066589355 -0.026031494 -0.55615234
0.069519043 -0.026184082 -0.55908203
0.07244873 -0.026275635 -0.56103516
0.075317383 -0.026367188 -0.56298828
0.078369141 -0.026504517 -0.56591797
0.081298828 -0.026596069 -0.56787109
0.084228516 -0.026702881 -0.56982422
0.087219238 -0.026794434 -0.57177734
0.090026855 -0.02684021 -0.57275391
0.093078613 -0.026931763 -0.57519531
0.09588623 -0.026977539 -0.57617188
0.098754883 -0.027023315 -0.57714844
-0.033935547 -0.03024292 -0.58691406
-0.031158447 -0.030181885 -0.5859375
-0.028320312 -0.030090332 -0.58398438
-0.025497437 -0.029983521 -0.58203125
-0.022659302 -0.029830933 -0.57910156
-0.019851685 -0.029678345 -0.57617188
-0.017074585 -0.029510498 -0.57275391
-0.014297485 -0.029312134 -0.56884766
-0.011573792 -0.029159546 -0.56591797
-0.0088653564 -0.028945923 -0.56201172
-0.0062026978 -0.028793335 -0.55908203
-0.003572464 -0.028640747 -0.55615234
-0.00096893311 -0.028488159 -0.55273438
0.0041389465 -0.028076172 -0.54492188
0.0066490173 -0.027908325 -0.54199219
0.009147644 -0.027816772 -0.54003906
0.011604309 -0.027648926 -0.53662109
0.014060974 -0.027557373 -0.53466797
0.016494751 -0.027450562 -0.53271484
0.018920898 -0.02734375 -0.53076172
0.021362305 -0.027297974 -0.52978516
0.023788452 -0.027236938 -0.52880859
0.026260376 -0.027236938 -0.52880859
0.028793335 -0.027297974 -0.52978516
0.031311035 -0.02734375 -0.53076172
0.033874512 -0.027389526 -0.53173828
0.036407471 -0.027450562 -0.53271484
0.0390625 -0.027557373 -0.53466797
0.041717529 -0.027648926 -0.53662109
0.044403076 -0.027755737 -0.5390625
0.047088623 -0.027862549 -0.54101562
0.049804688 -0.02796936 -0.54296875
0.052520752 -0.028076172 -0.54492188
0.055389404 -0.02822876 -0.54785156
0.058166504 -0.028320312 -0.54980469
0.060943604 -0.028427124 -0.55175781
0.063720703 -0.028533936 -0.55371094
0.066711426 -0.028686523 -0.55712891
0.069519043 -0.028793335 -0.55908203
0.07244873 -0.028900146 -0.56103516
0.075439453 -0.029052734 -0.56396484
0.078369141 -0.029159546 -0.56591797
0.081298828 -0.029251099 -0.56787109
0.084228516 -0.02935791 -0.56982422
0.087219238 -0.029464722 -0.57177734
0.090209961 -0.029571533 -0.57421875
0.093078613 -0.02961731 -0.57519531
0.096069336 -0.029724121 -0.57714844
0.098754883 -0.029724121 -0.57714844
-0.033935547 -0.032989502 -0.58691406
-0.031158447 -0.032928467 -0.5859375
-0.028320312 -0.032806396 -0.58398438
-0.025497437 -0.032684326 -0.58203125
-0.022659302 -0.032531738 -0.57910156
-0.019851685 -0.032348633 -0.57617188
-0.017074585 -0.032196045 -0.57275391
-0.014297485 -0.031951904 -0.56884766
-0.011573792 -0.031799316 -0.56591797
-0.0088653564 -0.031555176 -0.56201172
-0.0062026978 -0.031402588 -0.55908203
-0.0035667419 -0.031173706 -0.5546875
-0.00096702576 -0.031005859 -0.55175781
0.0016012192 -0.030792236 -0.54785156
0.0041389465 -0.030609131 -0.54492188
0.0066490173 -0.030441284 -0.54199219
0.009147644 -0.030334473 -0.54003906
0.011604309 -0.030166626 -0.53662109
0.014060974 -0.030059814 -0.53466797
0.016494751 -0.029937744 -0.53271484
0.018920898 -0.029830933 -0.53076172
0.021362305 -0.029769897 -0.52978516
0.023834229 -0.029769897 -0.52978516
0.026306152 -0.029769897 -0.52978516
0.028793335 -0.029769897 -0.52978516
0.031311035 -0.029830933 -0.53076172
0.033874512 -0.029876709 -0.53173828
0.036499023 -0.029998779 -0.53369141
0.0390625 -0.030059814 -0.53466797
0.041717529 -0.030166626 -0.53662109
0.044403076 -0.030273438 -0.5390625
0.047088623 -0.030395508 -0.54101562
0.049804688 -0.030502319 -0.54296875
0.052612305 -0.030670166 -0.54589844
0.055389404 -0.030792236 -0.54785156
0.058166504 -0.030899048 -0.54980469
0.060943604 -0.031005859 -0.55175781
0.063842773 -0.031173706 -0.5546875
0.066711426 -0.031280518 -0.55712891
0.069519043 -0.031402588 -0.55908203
0.072570801 -0.031555176 -0.56201172
0.075439453 -0.031677246 -0.56396484
0.078491211 -0.031860352 -0.56689453
0.081420898 -0.031951904 -0.56884766
0.084411621 -0.032073975 -0.57080078
0.087402344 -0.032196045 -0.57275391
0.090209961 -0.03225708 -0.57421875
0.093200684 -0.032348633 -0.57617188
0.096069336 -0.032409668 -0.57714844
0.098937988 -0.032470703 -0.578125
-0.036743164 -0.035797119 -0.58789062
-0.033935547 -0.035736084 -0.58691406
-0.031158447 -0.035675049 -0.5859375
-0.028320312 -0.035552979 -0.58398438
-0.025497437 -0.035430908 -0.58203125
-0.022659302 -0.035247803 -0.57910156
-0.019851685 -0.035064697 -0.57617188
-0.017074585 -0.034881592 -0.57275391
-0.014297485 -0.034637451 -0.56884766
-0.011573792 -0.034454346 -0.56591797
-0.0088653564 -0.034210205 -0.56201172
-0.0061950684 -0.033935547 -0.55810547
-0.0035667419 -0.033752441 -0.5546875
-0.00096702576 -0.033569336 -0.55175781
0.0016012192 -0.033325195 -0.54785156
0.0041389465 -0.03314209 -0.54492188
0.0066490173 -0.032958984 -0.54199219
0.009147644 -0.032836914 -0.54003906
0.011604309 -0.032653809 -0.53662109
0.014060974 -0.032531738 -0.53466797
0.016494751 -0.032409668 -0.53271484
0.018951416 -0.032348633 -0.53173828
0.021392822 -0.032287598 -0.53076172
0.023834229 -0.032226562 -0.52978516
0.026306152 -0.032226562 -0.52978516
0.028793335 -0.032226562 -0.52978516
0.031311035 -0.032287598 -0.53076172
0.033874512 -0.032348633 -0.53173828
0.036499023 -0.032470703 -0.53369141
0.039123535 -0.032592773 -0.53564453
0.041717529 -0.032653809 -0.53662109
0.044403076 -0.032775879 -0.5390625
0.047088623 -0.032897949 -0.54101562
0.04989624 -0.033081055 -0.54394531
0.052612305 -0.033203125 -0.54589844
0.055389404 -0.033325195 -0.54785156
0.058166504 -0.033447266 -0.54980469
0.061065674 -0.033630371 -0.55273438
0.063842773 -0.033752441 -0.5546875
0.066711426 -0.033874512 -0.55712891
0.069702148 -0.034088135 -0.56005859
0.072570801 -0.034210205 -0.56201172
0.075561523 -0.034393311 -0.56494141
0.078491211 -0.034515381 -0.56689453
0.081420898 -0.034637451 -0.56884766
0.084411621 -0.034759521 -0.57080078
0.087402344 -0.034881592 -0.57275391
0.090393066 -0.035003662 -0.57519531
0.093200684 -0.035064697 -0.57617188
0.096069336 -0.035125732 -0.57714844
0.098937988 -0.035186768 -0.578125
0.10180664 -0.035247803 -0.57910156
-0.036743164 -0.038543701 -0.58789062
-0.033996582 -0.038543701 -0.58789062
-0.031158447 -0.038391113 -0.5859375
-0.028366089 -0.038330078 -0.58496094
-0.025543213 -0.038208008 -0.58300781
-0.022705078 -0.037994385 -0.58007812
-0.019851685 -0.037750244 -0.57617188
-0.017074585 -0.037536621 -0.57275391
-0.014297485 -0.03729248 -0.56884766
-0.011573792 -0.037078857 -0.56591797
-0.0088653564 -0.036834717 -0.56201172
-0.0061950684 -0.036560059 -0.55810547
-0.0035667419 -0.036376953 -0.5546875
-0.00096702576 -0.03616333 -0.55175781
0.0016012192 -0.035888672 -0.54785156
0.0041389465 -0.035705566 -0.54492188
0.0066604614 -0.035583496 -0.54296875
0.009147644 -0.035369873 -0.54003906
0.011627197 -0.035247803 -0.53808594
0.014060974 -0.03503418 -0.53466797
0.016525269 -0.034973145 -0.53369141
0.018951416 -0.034851074 -0.53173828
0.021392822 -0.034790039 -0.53076172
0.023834229 -0.034729004 -0.52978516
0.026306152 -0.034729004 -0.52978516
0.028839111 -0.034790039 -0.53076172
0.031311035 -0.034790039 -0.53076172
0.033935547 -0.034912109 -0.53271484
0.036499023 -0.034973145 -0.53369141
0.039123535 -0.035125732 -0.53564453
0.041778564 -0.035247803 -0.53808594
0.044464111 -0.035369873 -0.54003906
0.047180176 -0.035491943 -0.54199219
0.04989624 -0.035644531 -0.54394531
0.052612305 -0.035766602 -0.54589844
0.055389404 -0.035888672 -0.54785156
0.058166504 -0.03604126 -0.54980469
0.061065674 -0.036224365 -0.55273438
0.063842773 -0.036376953 -0.5546875
0.066711426 -0.036499023 -0.55712891
0.069702148 -0.036682129 -0.56005859
0.072570801 -0.036834717 -0.56201172
0.075561523 -0.037017822 -0.56494141
0.078491211 -0.037139893 -0.56689453
0.081420898 -0.03729248 -0.56884766
0.084411621 -0.037414551 -0.57080078
0.087402344 -0.037536621 -0.57275391
0.090393066 -0.037689209 -0.57519531
0.093383789 -0.037811279 -0.57714844
0.096252441 -0.037872314 -0.578125
0.099121094 -0.03793335 -0.57910156
-0.033996582 -0.041290283 -0.58789062
-0.031219482 -0.04119873 -0.58691406
-0.028366089 -0.04107666 -0.58496094
-0.025543213 -0.040924072 -0.58300781
-0.022705078 -0.040710449 -0.58007812
-0.019882202 -0.040496826 -0.57714844
-0.017074585 -0.040222168 -0.57275391
-0.014320374 -0.040008545 -0.56982422
-0.011573792 -0.039733887 -0.56591797
-0.0088653564 -0.039459229 -0.56201172
-0.0061950684 -0.039154053 -0.55810547
-0.0035667419 -0.038970947 -0.5546875
-0.00096511841 -0.038665771 -0.55078125
0.0016012192 -0.038452148 -0.54785156
0.0041389465 -0.038238525 -0.54492188
0.0066604614 -0.038116455 -0.54296875
0.009147644 -0.037902832 -0.54003906
0.011627197 -0.037750244 -0.53808594
0.014060974 -0.037536621 -0.53466797
0.016525269 -0.037475586 -0.53369141
0.018951416 -0.037322998 -0.53173828
0.021392822 -0.037261963 -0.53076172
0.023834229 -0.037200928 -0.52978516
0.026306152 -0.037200928 -0.52978516
0.028839111 -0.037261963 -0.53076172
0.03137207 -0.037322998 -0.53173828
0.033935547 -0.037414551 -0.53271484
0.036499023 -0.037475586 -0.53369141
0.039123535 -0.037628174 -0.53564453
0.041778564 -0.037750244 -0.53808594
0.044464111 -0.037902832 -0.54003906
0.047180176 -0.03805542 -0.54199219
0.04989624 -0.03817749 -0.54394531
0.052612305 -0.038330078 -0.54589844
0.055389404 -0.038452148 -0.54785156
0.058258057 -0.038665771 -0.55078125
0.061065674 -0.038818359 -0.55273438
0.063842773 -0.038970947 -0.5546875
0.066833496 -0.039154053 -0.55810547
0.069702148 -0.039306641 -0.56005859
0.072692871 -0.039520264 -0.56298828
0.075561523 -0.039672852 -0.56494141
0.078491211 -0.039794922 -0.56689453
0.081604004 -0.040008545 -0.56982422
0.084533691 -0.040161133 -0.57177734
0.087524414 -0.040283203 -0.57421875
0.090393066 -0.040374756 -0.57519531
0.093383789 -0.040496826 -0.57714844
0.096252441 -0.040588379 -0.578125
0.099121094 -0.040649414 -0.57910156
0.10198975 -0.040710449 -0.58007812
-0.036956787 -0.044250488 -0.59130859
-0.034057617 -0.0440979 -0.58886719
-0.03125 -0.044036865 -0.58789062
-0.028411865 -0.043884277 -0.5859375
-0.025588989 -0.043731689 -0.58398438
-0.022705078 -0.043426514 -0.58007812
-0.019882202 -0.043212891 -0.57714844
-0.017074585 -0.042907715 -0.57275391
-0.014320374 -0.042663574 -0.56982422
-0.011573792 -0.042388916 -0.56591797
-0.0088653564 -0.04208374 -0.56201172
-0.0061950684 -0.041778564 -0.55810547
-0.0035667419 -0.041564941 -0.5546875
-0.00096702576 -0.041320801 -0.55175781
0.0016040802 -0.041107178 -0.54882812
0.0041465759 -0.040863037 -0.54589844
0.0066604614 -0.040649414 -0.54296875
0.009147644 -0.040435791 -0.54003906
0.011627197 -0.040283203 -0.53808594
0.014091492 -0.040130615 -0.53564453
0.016525269 -0.039978027 -0.53369141
0.018951416 -0.039825439 -0.53173828
0.021392822 -0.039733887 -0.53076172
0.023880005 -0.039733887 -0.53076172
0.026367188 -0.039733887 -0.53076172
0.028839111 -0.039733887 -0.53076172
0.03137207 -0.039825439 -0.53173828
0.033935547 -0.039886475 -0.53271484
0.036560059 -0.040039062 -0.53466797
0.039123535 -0.040130615 -0.53564453
0.041778564 -0.040283203 -0.53808594
0.044464111 -0.040435791 -0.54003906
0.047180176 -0.040588379 -0.54199219
0.04989624 -0.040710449 -0.54394531
0.052612305 -0.040863037 -0.54589844
0.055389404 -0.041015625 -0.54785156
0.058258057 -0.041259766 -0.55078125
0.061065674 -0.041412354 -0.55273438
0.063842773 -0.041564941 -0.5546875
0.066833496 -0.041778564 -0.55810547
0.069702148 -0.041931152 -0.56005859
0.072692871 -0.042144775 -0.56298828
0.075561523 -0.042297363 -0.56494141
0.078613281 -0.042541504 -0.56787109
0.081604004 -0.042663574 -0.56982422
0.084533691 -0.042816162 -0.57177734
0.087524414 -0.04296875 -0.57421875
0.090393066 -0.043060303 -0.57519531
0.093383789 -0.043212891 -0.57714844
0.096252441 -0.043273926 -0.578125
0.099121094 -0.043365479 -0.57910156
0.10198975 -0.043426514 -0.58007812
-0.037017822 -0.047088623 -0.59228516
-0.034118652 -0.046936035 -0.58984375
-0.03125 -0.046783447 -0.58789062
-0.0284729 -0.046691895 -0.58691406
-0.025588989 -0.046447754 -0.58398438
-0.022735596 -0.046234131 -0.58105469
-0.019882202 -0.045898438 -0.57714844
-0.017074585 -0.045593262 -0.57275391
-0.014320374 -0.045349121 -0.56982422
-0.011573792 -0.045013428 -0.56591797
-0.0088653564 -0.044708252 -0.56201172
-0.0062026978 -0.044464111 -0.55908203
-0.0035667419 -0.044158936 -0.5546875
-0.00096702576 -0.043914795 -0.55175781
0.0016040802 -0.043670654 -0.54882812
0.0041465759 -0.043426514 -0.54589844
0.0066604614 -0.043182373 -0.54296875
0.009147644 -0.042938232 -0.54003906
0.011627197 -0.042785645 -0.53808594
0.014091492 -0.042633057 -0.53564453
0.016525269 -0.042480469 -0.53369141
0.018951416 -0.042297363 -0.53173828
0.021392822 -0.042236328 -0.53076172
0.023880005 -0.042236328 -0.53076172
0.026367188 -0.042236328 -0.53076172
0.028839111 -0.042236328 -0.53076172
0.03137207 -0.042297363 -0.53173828
0.033935547 -0.042388916 -0.53271484
0.036560059 -0.042541504 -0.53466797
0.039215088 -0.042694092 -0.53662109
0.041870117 -0.042877197 -0.5390625
0.044464111 -0.042938232 -0.54003906
0.047180176 -0.043121338 -0.54199219
0.04989624 -0.043273926 -0.54394531
0.052612305 -0.043426514 -0.54589844
0.055480957 -0.043670654 -0.54882812
0.058258057 -0.043823242 -0.55078125
0.061065674 -0.04397583 -0.55273438
0.063842773 -0.044158936 -0.5546875
0.066833496 -0.044372559 -0.55810547
0.069702148 -0.044555664 -0.56005859
0.072692871 -0.044799805 -0.56298828
0.075561523 -0.044952393 -0.56494141
0.078613281 -0.045196533 -0.56787109
0.081604004 -0.045349121 -0.56982422
0.084533691 -0.045501709 -0.57177734
0.087524414 -0.045654297 -0.57421875
0.090515137 -0.045837402 -0.57617188
0.093383789 -0.045898438 -0.57714844
0.096252441 -0.04598999 -0.578125
0.099121094 -0.046051025 -0.57910156
-0.037017822 -0.049865723 -0.59228516
-0.034118652 -0.049713135 -0.58984375
-0.031311035 -0.049621582 -0.58886719
-0.0284729 -0.049438477 -0.58691406
-0.025588989 -0.049194336 -0.58398438
-0.022735596 -0.048950195 -0.58105469
-0.019882202 -0.048614502 -0.57714844
-0.017105103 -0.048339844 -0.57421875
-0.014320374 -0.04800415 -0.56982422
-0.01159668 -0.04776001 -0.56689453
-0.0088806152 -0.047424316 -0.56298828
-0.0062026978 -0.047088623 -0.55908203
-0.003572464 -0.046813965 -0.55615234
-0.00096893311 -0.046569824 -0.55273438
0.0016040802 -0.046234131 -0.54882812
0.0041465759 -0.04598999 -0.54589844
0.0066719055 -0.045806885 -0.54394531
0.0091629028 -0.045562744 -0.54101562
0.011627197 -0.045288086 -0.53808594
0.014091492 -0.045135498 -0.53564453
0.016525269 -0.044952393 -0.53369141
0.018951416 -0.044799805 -0.53173828
0.021392822 -0.044708252 -0.53076172
0.023880005 -0.044708252 -0.53076172
0.026367188 -0.044708252 -0.53076172
0.028839111 -0.044708252 -0.53076172
0.03137207 -0.044799805 -0.53173828
0.033996582 -0.044952393 -0.53369141
0.036560059 -0.045043945 -0.53466797
0.039215088 -0.045227051 -0.53662109
0.041870117 -0.045379639 -0.5390625
0.044555664 -0.045562744 -0.54101562
0.047180176 -0.045654297 -0.54199219
0.04989624 -0.045806885 -0.54394531
0.052734375 -0.046051025 -0.546875
0.055480957 -0.046234131 -0.54882812
0.058258057 -0.046417236 -0.55078125
0.061065674 -0.046569824 -0.55273438
0.063964844 -0.046813965 -0.55615234
0.066833496 -0.04699707 -0.55810547
0.069702148 -0.047149658 -0.56005859
0.072692871 -0.047424316 -0.56298828
0.075744629 -0.047668457 -0.56591797
0.078613281 -0.047851562 -0.56787109
0.081604004 -0.04800415 -0.56982422
0.084533691 -0.048187256 -0.57177734
0.087524414 -0.048339844 -0.57421875
0.090515137 -0.048522949 -0.57617188
0.093383789 -0.048614502 -0.57714844
0.096435547 -0.04876709 -0.57910156
0.099121094 -0.04876709 -0.57910156
-0.037078857 -0.052734375 -0.59326172
-0.034179688 -0.05255127 -0.59130859
-0.031311035 -0.052368164 -0.58886719
-0.0284729 -0.052185059 -0.58691406
-0.025588989 -0.0519104 -0.58398438
-0.022735596 -0.05166626 -0.58105469
-0.019927979 -0.051391602 -0.578125
-0.017105103 -0.051025391 -0.57421875
-0.014343262 -0.050750732 -0.57080078
-0.01159668 -0.050415039 -0.56689453
-0.0088806152 -0.050048828 -0.56298828
-0.0062141418 -0.04977417 -0.56005859
-0.003572464 -0.049438477 -0.55615234
-0.00096893311 -0.049163818 -0.55273438
0.0016069412 -0.04888916 -0.54980469
0.0041542053 -0.048614502 -0.546875
0.0066719055 -0.048339844 -0.54394531
0.0091629028 -0.048095703 -0.54101562
0.011627197 -0.047821045 -0.53808594
0.014091492 -0.047637939 -0.53564453
0.016525269 -0.047454834 -0.53369141
0.018951416 -0.047271729 -0.53173828
0.021392822 -0.047180176 -0.53076172
0.023880005 -0.047180176 -0.53076172
0.026367188 -0.047180176 -0.53076172
0.028839111 -0.047180176 -0.53076172
0.03137207 -0.047271729 -0.53173828
0.033996582 -0.047454834 -0.53369141
0.036560059 -0.047546387 -0.53466797
0.039215088 -0.047729492 -0.53662109
0.041870117 -0.047912598 -0.5390625
0.044555664 -0.048095703 -0.54101562
0.047271729 -0.048278809 -0.54296875
0.049987793 -0.048431396 -0.54492188
0.052734375 -0.048614502 -0.546875
0.055480957 -0.048797607 -0.54882812
0.058258057 -0.048980713 -0.55078125
0.061157227 -0.049255371 -0.55371094
0.063964844 -0.049438477 -0.55615234
0.066833496 -0.049591064 -0.55810547
0.069702148 -0.04977417 -0.56005859
0.072692871 -0.050048828 -0.56298828
0.075744629 -0.050323486 -0.56591797
0.078613281 -0.050506592 -0.56787109
0.081604004 -0.05065918 -0.56982422
0.084533691 -0.050842285 -0.57177734
0.087524414 -0.051025391 -0.57421875
0.090515137 -0.051208496 -0.57617188
0.093566895 -0.051391602 -0.578125
0.096435547 -0.051483154 -0.57910156
0.099304199 -0.051574707 -0.58007812
0.10217285 -0.05166626 -0.58105469
-0.037017822 -0.055419922 -0.59228516
-0.034118652 -0.055206299 -0.58984375
-0.031311035 -0.055114746 -0.58886719
-0.0284729 -0.054931641 -0.58691406
-0.025588989 -0.054656982 -0.58398438
-0.022735596 -0.054382324 -0.58105469
-0.019927979 -0.054077148 -0.578125
-0.01713562 -0.05380249 -0.57519531
-0.014343262 -0.053436279 -0.57080078
-0.01159668 -0.053070068 -0.56689453
-0.008895874 -0.052764893 -0.56396484
-0.0062141418 -0.052398682 -0.56005859
-0.003578186 -0.052124023 -0.55712891
-0.00096893311 -0.051727295 -0.55273438
0.0016069412 -0.051452637 -0.54980469
0.0041542053 -0.051177979 -0.546875
0.0066719055 -0.05090332 -0.54394531
0.0091629028 -0.050628662 -0.54101562
0.011650085 -0.050415039 -0.5390625
0.014091492 -0.050140381 -0.53564453
0.016525269 -0.049957275 -0.53369141
0.018951416 -0.04977417 -0.53173828
0.021392822 -0.049682617 -0.53076172
0.023880005 -0.049682617 -0.53076172
0.026367188 -0.049682617 -0.53076172
0.028839111 -0.049682617 -0.53076172
0.03137207 -0.04977417 -0.53173828
0.033996582 -0.049957275 -0.53369141
0.036621094 -0.050140381 -0.53564453
0.039215088 -0.050231934 -0.53662109
0.041870117 -0.050415039 -0.5390625
0.044555664 -0.050628662 -0.54101562
0.047271729 -0.050811768 -0.54296875
0.049987793 -0.050994873 -0.54492188
0.052734375 -0.051177979 -0.546875
0.055480957 -0.051361084 -0.54882812
0.058380127 -0.051635742 -0.55175781
0.061157227 -0.051849365 -0.55371094
0.063964844 -0.052032471 -0.55615234
0.066833496 -0.052215576 -0.55810547
0.069702148 -0.052398682 -0.56005859
0.072692871 -0.05267334 -0.56298828
0.075744629 -0.052947998 -0.56591797
0.078613281 -0.053161621 -0.56787109
0.081604004 -0.053344727 -0.56982422
0.084533691 -0.053527832 -0.57177734
0.087524414 -0.053710938 -0.57421875
0.090515137 -0.053894043 -0.57617188
0.093566895 -0.054077148 -0.578125
0.096435547 -0.054168701 -0.57910156
0.099304199 -0.054290771 -0.58007812
0.10217285 -0.054382324 -0.58105469
-0.036956787 -0.058074951 -0.59130859
-0.034118652 -0.057983398 -0.58984375
-0.03125 -0.057769775 -0.58789062
-0.028411865 -0.05758667 -0.5859375
-0.025588989 -0.057373047 -0.58398438
-0.022735596 -0.057098389 -0.58105469
-0.019927979 -0.056793213 -0.578125
-0.01713562 -0.056488037 -0.57519531
-0.014343262 -0.056091309 -0.57080078
-0.011611938 -0.05581665 -0.56787109
-0.008895874 -0.055419922 -0.56396484
-0.0062141418 -0.055023193 -0.56005859
-0.003578186 -0.054718018 -0.55712891
-0.00097036362 -0.054412842 -0.55371094
0.0016098022 -0.054138184 -0.55078125
0.0041618347 -0.053833008 -0.54785156
0.0066871643 -0.053527832 -0.54492188
0.0091781616 -0.053253174 -0.54199219
0.011650085 -0.052947998 -0.5390625
0.014091492 -0.052642822 -0.53564453
0.016525269 -0.052459717 -0.53369141
0.018981934 -0.052368164 -0.53271484
0.021392822 -0.052154541 -0.53076172
0.023880005 -0.052154541 -0.53076172
0.026367188 -0.052154541 -0.53076172
0.028839111 -0.052154541 -0.53076172
0.031433105 -0.052368164 -0.53271484
0.033996582 -0.052459717 -0.53369141
0.036621094 -0.052642822 -0.53564453
0.039276123 -0.052856445 -0.53808594
0.04196167 -0.053039551 -0.54003906
0.044647217 -0.053253174 -0.54199219
0.047332764 -0.053436279 -0.54394531
0.050079346 -0.053649902 -0.54589844
0.052825928 -0.053833008 -0.54785156
0.05557251 -0.054016113 -0.54980469
0.058380127 -0.054229736 -0.55175781
0.061157227 -0.054412842 -0.55371094
0.063964844 -0.054626465 -0.55615234
0.066955566 -0.054931641 -0.55908203
0.069824219 -0.055114746 -0.56103516
0.072692871 -0.055297852 -0.56298828
0.075744629 -0.055603027 -0.56591797
0.078613281 -0.05581665 -0.56787109
0.081604004 -0.055999756 -0.56982422
0.084533691 -0.056213379 -0.57177734
0.087524414 -0.056396484 -0.57421875
0.090515137 -0.056610107 -0.57617188
0.093566895 -0.056793213 -0.578125
0.096435547 -0.056884766 -0.57910156
0.099304199 -0.056976318 -0.58007812
-0.034118652 -0.06072998 -0.58984375
-0.03125 -0.060516357 -0.58789062
-0.028411865 -0.060333252 -0.5859375
-0.025588989 -0.060119629 -0.58398438
-0.022735596 -0.059814453 -0.58105469
-0.019927979 -0.059509277 -0.578125
-0.01713562 -0.059173584 -0.57519531
-0.014373779 -0.058868408 -0.57177734
-0.011611938 -0.05847168 -0.56787109
-0.008895874 -0.058044434 -0.56396484
-0.0062255859 -0.057739258 -0.56103516
-0.003578186 -0.057312012 -0.55712891
-0.00097036362 -0.057006836 -0.55371094
0.0016098022 -0.05670166 -0.55078125
0.0041618347 -0.056396484 -0.54785156
0.0066871643 -0.056091309 -0.54492188
0.0091781616 -0.055786133 -0.54199219
0.011650085 -0.055450439 -0.5390625
0.01411438 -0.055267334 -0.53662109
0.016555786 -0.055053711 -0.53466797
0.018981934 -0.054840088 -0.53271484
0.021438599 -0.054748535 -0.53173828
0.023880005 -0.054626465 -0.53076172
0.026367188 -0.054626465 -0.53076172
0.028900146 -0.054748535 -0.53173828
0.031433105 -0.054840088 -0.53271484
0.033996582 -0.054962158 -0.53369141
0.036621094 -0.055145264 -0.53564453
0.039276123 -0.055358887 -0.53808594
0.04196167 -0.05557251 -0.54003906
0.044647217 -0.055786133 -0.54199219
0.047332764 -0.055969238 -0.54394531
0.050079346 -0.056182861 -0.54589844
0.052825928 -0.056396484 -0.54785156
0.05557251 -0.056610107 -0.54980469
0.058380127 -0.05682373 -0.55175781
0.061157227 -0.057006836 -0.55371094
0.064086914 -0.057312012 -0.55712891
0.066955566 -0.057525635 -0.55908203
0.069824219 -0.057739258 -0.56103516
0.072814941 -0.058044434 -0.56396484
0.075744629 -0.058258057 -0.56591797
0.078613281 -0.05847168 -0.56787109
0.081726074 -0.058776855 -0.57080078
0.084716797 -0.058990479 -0.57275391
0.08770752 -0.059173584 -0.57519531
0.090515137 -0.059295654 -0.57617188
0.093566895 -0.059509277 -0.578125
0.096557617 -0.059692383 -0.58007812
0.099487305 -0.059814453 -0.58105469
-0.034118652 -0.063476562 -0.58984375
-0.031219482 -0.063171387 -0.58691406
-0.028411865 -0.063049316 -0.5859375
-0.025588989 -0.062805176 -0.58398438
-0.022735596 -0.0625 -0.58105469
-0.019927979 -0.062194824 -0.578125
-0.01713562 -0.061859131 -0.57519531
-0.014373779 -0.061553955 -0.57177734
-0.011611938 -0.061126709 -0.56787109
-0.008895874 -0.060699463 -0.56396484
-0.0062255859 -0.06036377 -0.56103516
-0.0035858154 -0.060028076 -0.55810547
-0.00097036362 -0.05960083 -0.55371094
0.0016098022 -0.059295654 -0.55078125
0.0041618347 -0.058959961 -0.54785156
0.0066871643 -0.058624268 -0.54492188
0.0091781616 -0.058319092 -0.54199219
0.011650085 -0.057983398 -0.5390625
0.01411438 -0.057769775 -0.53662109
0.016555786 -0.057556152 -0.53466797
0.018981934 -0.057342529 -0.53271484
0.021438599 -0.057220459 -0.53173828
0.023880005 -0.057128906 -0.53076172
0.026367188 -0.057128906 -0.53076172
0.028900146 -0.057220459 -0.53173828
0.031433105 -0.057342529 -0.53271484
0.034057617 -0.057556152 -0.53466797
0.036621094 -0.057647705 -0.53564453
0.039276123 -0.057891846 -0.53808594
0.04196167 -0.058105469 -0.54003906
0.044647217 -0.058319092 -0.54199219
0.047332764 -0.058532715 -0.54394531
0.050079346 -0.058746338 -0.54589844
0.052825928 -0.058959961 -0.54785156
0.05569458 -0.059295654 -0.55078125
0.05847168 -0.059509277 -0.55273438
0.061279297 -0.0597229 -0.5546875
0.064086914 -0.059936523 -0.55712891
0.066955566 -0.060150146 -0.55908203
0.069824219 -0.06036377 -0.56103516
0.072814941 -0.060699463 -0.56396484
0.075744629 -0.060913086 -0.56591797
0.078796387 -0.061218262 -0.56884766
0.081726074 -0.061431885 -0.57080078
0.084716797 -0.061645508 -0.57275391
0.08770752 -0.061859131 -0.57519531
0.090698242 -0.062103271 -0.57714844
0.093688965 -0.062316895 -0.57910156
0.096557617 -0.062408447 -0.58007812
0.099487305 -0.0625 -0.58105469
-0.031158447 -0.065795898 -0.5859375
-0.028366089 -0.065673828 -0.58496094
-0.025543213 -0.065429688 -0.58300781
-0.022735596 -0.065246582 -0.58105469
-0.019927979 -0.064880371 -0.578125
-0.01713562 -0.064575195 -0.57519531
-0.014373779 -0.064208984 -0.57177734
-0.011611938 -0.063781738 -0.56787109
-0.0089111328 -0.063415527 -0.56494141
-0.0062255859 -0.062988281 -0.56103516
-0.0035858154 -0.06262207 -0.55810547
-0.00097036362 -0.062194824 -0.55371094
0.0016098022 -0.061859131 -0.55078125
0.0041618347 -0.061523438 -0.54785156
0.0066871643 -0.061187744 -0.54492188
0.0091781616 -0.060852051 -0.54199219
0.011672974 -0.06060791 -0.54003906
0.01411438 -0.060272217 -0.53662109
0.016555786 -0.060058594 -0.53466797
0.018981934 -0.059814453 -0.53271484
0.021438599 -0.0597229 -0.53173828
0.023925781 -0.0597229 -0.53173828
0.026412964 -0.0597229 -0.53173828
0.028900146 -0.0597229 -0.53173828
0.031433105 -0.059814453 -0.53271484
0.034057617 -0.060058594 -0.53466797
0.036682129 -0.060272217 -0.53662109
0.039276123 -0.060394287 -0.53808594
0.04196167 -0.06060791 -0.54003906
0.044647217 -0.060852051 -0.54199219
0.047424316 -0.061187744 -0.54492188
0.050170898 -0.061401367 -0.546875
0.05291748 -0.061645508 -0.54882812
0.05569458 -0.061859131 -0.55078125
0.05847168 -0.062072754 -0.55273438
0.061279297 -0.062316895 -0.5546875
0.064086914 -0.0625 -0.55712891
0.066955566 -0.062744141 -0.55908203
0.069946289 -0.063110352 -0.56201172
0.072814941 -0.063293457 -0.56396484
0.075866699 -0.063659668 -0.56689453
0.078796387 -0.063842773 -0.56884766
0.081726074 -0.064086914 -0.57080078
0.084716797 -0.064331055 -0.57275391
0.08770752 -0.064575195 -0.57519531
0.090698242 -0.064758301 -0.57714844
0.093688965 -0.065002441 -0.57910156
0.096740723 -0.065246582 -0.58105469
0.099609375 -0.065307617 -0.58203125
0.10290527 -0.065673828 -0.58496094
-0.047851562 -0.068908691 -0.58886719
-0.044921875 -0.068664551 -0.58691406
-0.042175293 -0.068664551 -0.58691406
-0.039367676 -0.06854248 -0.5859375
-0.033843994 -0.06842041 -0.58496094
-0.031112671 -0.06842041 -0.58496094
-0.028320312 -0.06829834 -0.58398438
-0.025497437 -0.068054199 -0.58203125
-0.022705078 -0.067810059 -0.58007812
-0.019927979 -0.067565918 -0.578125
-0.01713562 -0.067260742 -0.57519531
-0.014343262 -0.066772461 -0.57080078
-0.011611938 -0.06640625 -0.56787109
-0.0089111328 -0.066040039 -0.56494141
-0.0062255859 -0.065612793 -0.56103516
-0.0035858154 -0.065246582 -0.55810547
-0.00097227097 -0.064880371 -0.5546875
0.0016098022 -0.06439209 -0.55078125
0.0041618347 -0.064086914 -0.54785156
0.0066871643 -0.063720703 -0.54492188
0.0092010498 -0.063476562 -0.54296875
0.011672974 -0.063110352 -0.54003906
0.01411438 -0.062744141 -0.53662109
0.016555786 -0.062561035 -0.53466797
0.01902771 -0.062438965 -0.53369141
0.021484375 -0.062316895 -0.53271484
0.023925781 -0.062194824 -0.53173828
0.026412964 -0.062194824 -0.53173828
0.028961182 -0.062316895 -0.53271484
0.031494141 -0.062438965 -0.53369141
0.034057617 -0.062561035 -0.53466797
0.036682129 -0.062744141 -0.53662109
0.039337158 -0.062988281 -0.5390625
0.042022705 -0.063232422 -0.54101562
0.044708252 -0.063476562 -0.54296875
0.047424316 -0.063720703 -0.54492188
0.050170898 -0.063964844 -0.546875
0.05291748 -0.064208984 -0.54882812
0.05569458 -0.06439209 -0.55078125
0.05847168 -0.06463623 -0.55273438
0.061279297 -0.064880371 -0.5546875
0.064208984 -0.065246582 -0.55810547
0.067077637 -0.065490723 -0.56005859
0.069946289 -0.065734863 -0.56201172
0.072814941 -0.065917969 -0.56396484
0.075866699 -0.06628418 -0.56689453
0.078796387 -0.06652832 -0.56884766
0.081726074 -0.066772461 -0.57080078
0.084716797 -0.067016602 -0.57275391
0.08770752 -0.067260742 -0.57519531
0.090698242 -0.067443848 -0.57714844
0.09387207 -0.067810059 -0.58007812
0.096740723 -0.067932129 -0.58105469
0.09979248 -0.06817627 -0.58300781
0.10308838 -0.06854248 -0.5859375
-0.04486084 -0.071289062 -0.5859375
-0.042114258 -0.071289062 -0.5859375
-0.039306641 -0.071166992 -0.58496094
-0.036499023 -0.071044922 -0.58398438
-0.033782959 -0.071044922 -0.58398438
-0.031051636 -0.071044922 -0.58398438
-0.028274536 -0.070922852 -0.58300781
-0.025466919 -0.070678711 -0.58105469
-0.022659302 -0.07043457 -0.57910156
-0.019882202 -0.07019043 -0.57714844
-0.017105103 -0.069824219 -0.57421875
-0.014343262 -0.069458008 -0.57080078
-0.011611938 -0.069091797 -0.56787109
-0.0089111328 -0.068725586 -0.56494141
-0.0062255859 -0.068237305 -0.56103516
-0.0035858154 -0.067871094 -0.55810547
-0.00097227097 -0.067504883 -0.5546875
0.0016126633 -0.067138672 -0.55175781
0.0041618347 -0.066650391 -0.54785156
0.0066986084 -0.06640625 -0.54589844
0.0092010498 -0.066040039 -0.54296875
0.011672974 -0.065673828 -0.54003906
0.014144897 -0.065429688 -0.53808594
0.016586304 -0.065185547 -0.53564453
0.01902771 -0.064941406 -0.53369141
0.021484375 -0.064819336 -0.53271484
0.023925781 -0.064697266 -0.53173828
0.026412964 -0.064697266 -0.53173828
0.028961182 -0.064819336 -0.53271484
0.031494141 -0.064941406 -0.53369141
0.034057617 -0.065063477 -0.53466797
0.036682129 -0.065307617 -0.53662109
0.039337158 -0.065551758 -0.5390625
0.042022705 -0.065795898 -0.54101562
0.044708252 -0.066040039 -0.54296875
0.047424316 -0.06628418 -0.54492188
0.050170898 -0.06652832 -0.546875
0.05291748 -0.066772461 -0.54882812
0.05569458 -0.067016602 -0.55078125
0.05847168 -0.067260742 -0.55273438
0.061279297 -0.067504883 -0.5546875
0.064208984 -0.067871094 -0.55810547
0.067077637 -0.068115234 -0.56005859
0.069946289 -0.068359375 -0.56201172
0.072937012 -0.068725586 -0.56494141
0.075866699 -0.068969727 -0.56689453
0.078796387 -0.069213867 -0.56884766
0.081726074 -0.069458008 -0.57080078
0.084716797 -0.069702148 -0.57275391
0.08782959 -0.070068359 -0.57617188
0.090820312 -0.0703125 -0.578125
0.09387207 -0.070556641 -0.58007812
0.096923828 -0.070800781 -0.58203125
0.099975586 -0.071044922 -0.58398438
-0.044708252 -0.073730469 -0.58398438
-0.04196167 -0.073730469 -0.58398438
-0.039245605 -0.073730469 -0.58398438
-0.036437988 -0.073608398 -0.58300781
-0.033721924 -0.073608398 -0.58300781
-0.030944824 -0.073486328 -0.58203125
-0.028182983 -0.073364258 -0.58105469
-0.025421143 -0.073242188 -0.58007812
-0.022628784 -0.072998047 -0.578125
-0.019851685 -0.072753906 -0.57617188
-0.017074585 -0.072387695 -0.57275391
-0.014343262 -0.07208252 -0.57080078
-0.011611938 -0.071716309 -0.56787109
-0.0089111328 -0.071350098 -0.56494141
-0.0062255859 -0.070861816 -0.56103516
-0.0035858154 -0.07043457 -0.55810547
-0.00097227097 -0.070068359 -0.5546875
0.0016126633 -0.069702148 -0.55175781
0.0041694641 -0.069335938 -0.54882812
0.0066986084 -0.068908691 -0.54589844
0.0092010498 -0.06854248 -0.54296875
0.011672974 -0.06817627 -0.54003906
0.014144897 -0.067932129 -0.53808594
0.016586304 -0.067687988 -0.53564453
0.01902771 -0.067443848 -0.53369141
0.021484375 -0.067260742 -0.53271484
0.023925781 -0.067138672 -0.53173828
0.026412964 -0.067138672 -0.53173828
0.028961182 -0.067260742 -0.53271484
0.031494141 -0.067443848 -0.53369141
0.034057617 -0.067565918 -0.53466797
0.036682129 -0.067810059 -0.53662109
0.039337158 -0.068054199 -0.5390625
0.042022705 -0.06829834 -0.54101562
0.044708252 -0.06854248 -0.54296875
0.047424316 -0.068786621 -0.54492188
0.050170898 -0.069091797 -0.546875
0.05291748 -0.069335938 -0.54882812
0.05569458 -0.069580078 -0.55078125
0.05847168 -0.069824219 -0.55273438
0.061401367 -0.07019043 -0.55615234
0.064208984 -0.07043457 -0.55810547
0.067077637 -0.070739746 -0.56005859
0.069946289 -0.070983887 -0.56201172
0.072937012 -0.071350098 -0.56494141
0.075866699 -0.071594238 -0.56689453
0.078796387 -0.071838379 -0.56884766
0.081726074 -0.07208252 -0.57080078
0.084838867 -0.072509766 -0.57421875
0.08782959 -0.072753906 -0.57617188
0.090820312 -0.072998047 -0.578125
0.09387207 -0.073242188 -0.58007812
0.096923828 -0.073486328 -0.58203125
0.09979248 -0.073608398 -0.58300781
-0.041809082 -0.07623291 -0.58203125
-0.039093018 -0.07623291 -0.58203125
-0.036315918 -0.07611084 -0.58105469
-0.033599854 -0.07611084 -0.58105469
-0.030838013 -0.075927734 -0.58007812
-0.028076172 -0.075805664 -0.57910156
-0.02532959 -0.075683594 -0.578125
-0.02255249 -0.075439453 -0.57617188
-0.019821167 -0.075317383 -0.57519531
-0.017074585 -0.075012207 -0.57275391
-0.014320374 -0.074645996 -0.56982422
-0.011611938 -0.074401855 -0.56787109
-0.0089111328 -0.073974609 -0.56494141
-0.0062255859 -0.073486328 -0.56103516
-0.0035858154 -0.073059082 -0.55810547
-0.00097227097 -0.072692871 -0.5546875
0.0016098022 -0.072143555 -0.55078125
0.0041618347 -0.071777344 -0.54785156
0.0066986084 -0.071472168 -0.54589844
0.0092010498 -0.071105957 -0.54296875
0.011672974 -0.070678711 -0.54003906
0.014144897 -0.07043457 -0.53808594
0.016586304 -0.07019043 -0.53564453
0.01902771 -0.069885254 -0.53369141
0.021484375 -0.069763184 -0.53271484
0.023971558 -0.069763184 -0.53271484
0.02645874 -0.069763184 -0.53271484
0.028961182 -0.069763184 -0.53271484
0.031494141 -0.069885254 -0.53369141
0.034057617 -0.070068359 -0.53466797
0.036682129 -0.0703125 -0.53662109
0.039337158 -0.070556641 -0.5390625
0.04196167 -0.070678711 -0.54003906
0.044647217 -0.070983887 -0.54199219
0.047332764 -0.071228027 -0.54394531
0.050170898 -0.071594238 -0.546875
0.05291748 -0.071899414 -0.54882812
0.05569458 -0.072143555 -0.55078125
0.05847168 -0.072387695 -0.55273438
0.061279297 -0.072692871 -0.5546875
0.064208984 -0.073059082 -0.55810547
0.067077637 -0.073303223 -0.56005859
0.070068359 -0.073730469 -0.56298828
0.072937012 -0.073974609 -0.56494141
0.075866699 -0.07421875 -0.56689453
0.078918457 -0.074645996 -0.56982422
0.081848145 -0.074890137 -0.57177734
0.084838867 -0.075195312 -0.57421875
0.08782959 -0.075439453 -0.57617188
0.090698242 -0.075561523 -0.57714844
0.093688965 -0.075805664 -0.57910156
0.096740723 -0.07611084 -0.58105469
-0.038909912 -0.078552246 -0.57910156
-0.036193848 -0.078552246 -0.57910156
-0.033477783 -0.078552246 -0.57910156
-0.030731201 -0.078369141 -0.578125
-0.027984619 -0.07824707 -0.57714844
-0.025238037 -0.078125 -0.57617188
-0.022506714 -0.07800293 -0.57519531
-0.019790649 -0.077880859 -0.57421875
-0.017044067 -0.077575684 -0.57177734
-0.014320374 -0.077331543 -0.56982422
-0.01159668 -0.076904297 -0.56689453
-0.008895874 -0.076477051 -0.56396484
-0.0062255859 -0.07611084 -0.56103516
-0.0035858154 -0.075683594 -0.55810547
-0.00097227097 -0.075256348 -0.5546875
0.0016098022 -0.074707031 -0.55078125
0.0041618347 -0.07434082 -0.54785156
0.0066871643 -0.073913574 -0.54492188
0.0092010498 -0.073608398 -0.54296875
0.011672974 -0.073242188 -0.54003906
0.014144897 -0.072937012 -0.53808594
0.016586304 -0.072692871 -0.53564453
0.01902771 -0.072387695 -0.53369141
0.021484375 -0.072265625 -0.53271484
0.023971558 -0.072265625 -0.53271484
0.02645874 -0.072265625 -0.53271484
0.028961182 -0.072265625 -0.53271484
0.031494141 -0.072387695 -0.53369141
0.034057617 -0.072570801 -0.53466797
0.036682129 -0.072814941 -0.53662109
0.039337158 -0.073059082 -0.5390625
0.042022705 -0.073364258 -0.54101562
0.044647217 -0.073486328 -0.54199219
0.047332764 -0.073791504 -0.54394531
0.050079346 -0.074035645 -0.54589844
0.052825928 -0.07434082 -0.54785156
0.05569458 -0.074707031 -0.55078125
0.05847168 -0.075012207 -0.55273438
0.061279297 -0.075256348 -0.5546875
0.064208984 -0.075683594 -0.55810547
0.067077637 -0.075927734 -0.56005859
0.070068359 -0.07635498 -0.56298828
0.072937012 -0.076599121 -0.56494141
0.07598877 -0.077026367 -0.56787109
0.078918457 -0.077331543 -0.56982422
0.081848145 -0.077575684 -0.57177734
0.084838867 -0.077880859 -0.57421875
0.08770752 -0.07800293 -0.57519531
0.090698242 -0.07824707 -0.57714844
0.093688965 -0.078552246 -0.57910156
0.096557617 -0.078674316 -0.58007812
-0.036071777 -0.080932617 -0.57714844
-0.033355713 -0.080932617 -0.57714844
-0.030685425 -0.080932617 -0.57714844
-0.027938843 -0.080810547 -0.57617188
-0.025192261 -0.080688477 -0.57519531
-0.022460938 -0.080505371 -0.57421875
-0.019744873 -0.080383301 -0.57275391
-0.01701355 -0.08013916 -0.57080078
-0.014297485 -0.079833984 -0.56884766
-0.01159668 -0.079528809 -0.56689453
-0.008895874 -0.079101562 -0.56396484
-0.0062255859 -0.078674316 -0.56103516
-0.0035858154 -0.078308105 -0.55810547
-0.00097036362 -0.077697754 -0.55371094
0.0016098022 -0.077270508 -0.55078125
0.0041618347 -0.076843262 -0.54785156
0.0066871643 -0.076477051 -0.54492188
0.0091781616 -0.076049805 -0.54199219
0.011672974 -0.075744629 -0.54003906
0.01411438 -0.075317383 -0.53662109
0.016586304 -0.075195312 -0.53564453
0.01902771 -0.074890137 -0.53369141
0.021484375 -0.074768066 -0.53271484
0.023971558 -0.074768066 -0.53271484
0.02645874 -0.074768066 -0.53271484
0.028961182 -0.074768066 -0.53271484
0.031494141 -0.074890137 -0.53369141
0.034118652 -0.075195312 -0.53564453
0.036682129 -0.075317383 -0.53662109
0.039337158 -0.075622559 -0.5390625
0.042022705 -0.075866699 -0.54101562
0.044647217 -0.076049805 -0.54199219
0.047332764 -0.076293945 -0.54394531
0.050079346 -0.076599121 -0.54589844
0.052825928 -0.076843262 -0.54785156
0.05557251 -0.077148438 -0.54980469
0.05847168 -0.077575684 -0.55273438
0.061279297 -0.077880859 -0.5546875
0.064208984 -0.078308105 -0.55810547
0.067077637 -0.078552246 -0.56005859
0.070068359 -0.078979492 -0.56298828
0.072937012 -0.079284668 -0.56494141
0.07598877 -0.079711914 -0.56787109
0.078918457 -0.079956055 -0.56982422
0.081848145 -0.08026123 -0.57177734
0.084838867 -0.080505371 -0.57421875
0.08782959 -0.080810547 -0.57617188
0.090698242 -0.080932617 -0.57714844
0.093566895 -0.081115723 -0.578125
-0.033325195 -0.083496094 -0.57617188
-0.030578613 -0.083374023 -0.57519531
-0.027877808 -0.083374023 -0.57519531
-0.025146484 -0.083190918 -0.57421875
-0.02243042 -0.083068848 -0.57275391
-0.019714355 -0.082946777 -0.57177734
-0.01701355 -0.082763672 -0.57080078
-0.014297485 -0.082519531 -0.56884766
-0.01159668 -0.082214355 -0.56689453
-0.008895874 -0.081787109 -0.56396484
-0.0062255859 -0.081298828 -0.56103516
-0.0035858154 -0.080871582 -0.55810547
-0.00097036362 -0.080322266 -0.55371094
0.0016069412 -0.079711914 -0.54980469
0.0041542053 -0.079284668 -0.546875
0.0066871643 -0.078979492 -0.54492188
0.0091781616 -0.078552246 -0.54199219
0.011672974 -0.07824707 -0.54003906
0.01411438 -0.077819824 -0.53662109
0.016555786 -0.077514648 -0.53466797
0.01902771 -0.077392578 -0.53369141
0.021484375 -0.077270508 -0.53271484
0.023971558 -0.077270508 -0.53271484
0.02645874 -0.077270508 -0.53271484
0.028961182 -0.077270508 -0.53271484
0.031555176 -0.077514648 -0.53466797
0.034118652 -0.077697754 -0.53564453
0.036682129 -0.077819824 -0.53662109
0.039337158 -0.078125 -0.5390625
0.042022705 -0.078430176 -0.54101562
0.044708252 -0.078735352 -0.54296875
0.047332764 -0.078857422 -0.54394531
0.050079346 -0.079162598 -0.54589844
0.052825928 -0.079406738 -0.54785156
0.05557251 -0.079711914 -0.54980469
0.05847168 -0.08013916 -0.55273438
0.061279297 -0.080444336 -0.5546875
0.064208984 -0.080871582 -0.55810547
0.067077637 -0.081176758 -0.56005859
0.069946289 -0.081481934 -0.56201172
0.072937012 -0.08190918 -0.56494141
0.07598877 -0.082336426 -0.56787109
0.078918457 -0.082641602 -0.56982422
0.081848145 -0.082946777 -0.57177734
0.084838867 -0.083190918 -0.57421875
0.08782959 -0.083496094 -0.57617188
0.090698242 -0.083679199 -0.57714844
-0.030517578 -0.085876465 -0.57421875
-0.027832031 -0.085876465 -0.57421875
-0.025100708 -0.085754395 -0.57275391
-0.02243042 -0.085754395 -0.57275391
-0.019714355 -0.085632324 -0.57177734
-0.01701355 -0.085449219 -0.57080078
-0.014297485 -0.085144043 -0.56884766
-0.01159668 -0.084838867 -0.56689453
-0.0089111328 -0.084533691 -0.56494141
-0.0062255859 -0.08392334 -0.56103516
-0.003578186 -0.083374023 -0.55712891
-0.00097036362 -0.082885742 -0.55371094
0.0016069412 -0.082275391 -0.54980469
0.0041542053 -0.081848145 -0.546875
0.0066719055 -0.081420898 -0.54394531
0.0091781616 -0.081115723 -0.54199219
0.011650085 -0.080627441 -0.5390625
0.014091492 -0.080200195 -0.53564453
0.016525269 -0.07989502 -0.53369141
0.018981934 -0.079772949 -0.53271484
0.021484375 -0.079772949 -0.53271484
0.023925781 -0.079589844 -0.53173828
0.02645874 -0.079772949 -0.53271484
0.029006958 -0.07989502 -0.53369141
0.031555176 -0.08001709 -0.53466797
0.034118652 -0.080200195 -0.53564453
0.036773682 -0.080505371 -0.53808594
0.039337158 -0.080627441 -0.5390625
0.042022705 -0.080932617 -0.54101562
0.044708252 -0.081237793 -0.54296875
0.047424316 -0.081542969 -0.54492188
0.050079346 -0.081726074 -0.54589844
0.052825928 -0.081970215 -0.54785156
0.05557251 -0.082275391 -0.54980469
0.058380127 -0.082580566 -0.55175781
0.061279297 -0.083068848 -0.5546875
0.064208984 -0.083496094 -0.55810547
0.067077637 -0.08380127 -0.56005859
0.069946289 -0.084106445 -0.56201172
0.072937012 -0.084533691 -0.56494141
0.07598877 -0.085021973 -0.56787109
0.078918457 -0.085327148 -0.56982422
0.081848145 -0.085632324 -0.57177734
0.084838867 -0.085876465 -0.57421875
0.08782959 -0.086181641 -0.57617188
-0.027832031 -0.088562012 -0.57421875
-0.025100708 -0.088439941 -0.57275391
-0.022384644 -0.088256836 -0.57177734
-0.019714355 -0.088256836 -0.57177734
-0.01701355 -0.088134766 -0.57080078
-0.014297485 -0.08782959 -0.56884766
-0.01159668 -0.087524414 -0.56689453
-0.0089111328 -0.087219238 -0.56494141
-0.00623703 -0.086730957 -0.56201172
-0.003578186 -0.0859375 -0.55712891
-0.00096893311 -0.085327148 -0.55273438
0.0016040802 -0.084716797 -0.54882812
0.0041465759 -0.084228516 -0.54589844
0.0066719055 -0.08392334 -0.54394531
0.0091629028 -0.083496094 -0.54101562
0.011650085 -0.083190918 -0.5390625
0.014060974 -0.082519531 -0.53466797
0.016525269 -0.082397461 -0.53369141
0.018981934 -0.082214355 -0.53271484
0.021438599 -0.082092285 -0.53173828
0.023925781 -0.082092285 -0.53173828
0.026412964 -0.082092285 -0.53173828
0.029006958 -0.082397461 -0.53369141
0.031555176 -0.082519531 -0.53466797
0.034179688 -0.082824707 -0.53662109
0.036773682 -0.083007812 -0.53808594
0.039428711 -0.083312988 -0.54003906
0.042022705 -0.083496094 -0.54101562
0.044708252 -0.08380127 -0.54296875
0.047424316 -0.084106445 -0.54492188
0.050079346 -0.084228516 -0.54589844
0.052825928 -0.084533691 -0.54785156
0.055480957 -0.084716797 -0.54882812
0.058258057 -0.085021973 -0.55078125
0.061279297 -0.085632324 -0.5546875
0.064208984 -0.086120605 -0.55810547
0.067077637 -0.086425781 -0.56005859
0.069946289 -0.086730957 -0.56201172
0.072937012 -0.087219238 -0.56494141
0.07598877 -0.087646484 -0.56787109
0.078918457 -0.08795166 -0.56982422
0.081848145 -0.088256836 -0.57177734
0.084838867 -0.088562012 -0.57421875
-0.022384644 -0.090942383 -0.57177734
-0.019714355 -0.090942383 -0.57177734
-0.01701355 -0.090820312 -0.57080078
-0.014320374 -0.090637207 -0.56982422
-0.011634827 -0.090454102 -0.56884766
0.014007568 -0.084716797 -0.53271484
0.016464233 -0.084594727 -0.53173828
0.018951416 -0.084594727 -0.53173828
0.021438599 -0.084594727 -0.53173828
0.023925781 -0.084594727 -0.53173828
0.026412964 -0.084594727 -0.53173828
0.029006958 -0.084899902 -0.53369141
0.031555176 -0.085021973 -0.53466797
0.034179688 -0.085388184 -0.53662109
0.036834717 -0.085693359 -0.5390625
0.039428711 -0.08581543 -0.54003906
0.042114258 -0.086181641 -0.54199219
0.044708252 -0.086303711 -0.54296875
0.047424316 -0.086669922 -0.54492188
0.050170898 -0.086975098 -0.546875
0.052825928 -0.087097168 -0.54785156
0.055480957 -0.087280273 -0.54882812
0.058258057 -0.087585449 -0.55078125
0.061279297 -0.088256836 -0.5546875
0.064086914 -0.088562012 -0.55712891
0.066955566 -0.088867188 -0.55908203
0.069702148 -0.089050293 -0.56005859
0.07598877 -0.090332031 -0.56787109
0.078918457 -0.090637207 -0.56982422
-0.01701355 -0.093444824 -0.57080078
0.0090408325 -0.087402344 -0.53369141
0.011474609 -0.086914062 -0.53076172
0.01398468 -0.087036133 -0.53173828
0.016464233 -0.087036133 -0.53173828
0.018920898 -0.086914062 -0.53076172
0.021392822 -0.086914062 -0.53076172
0.023880005 -0.086914062 -0.53076172
0.026367188 -0.086914062 -0.53076172
0.031616211 -0.08770752 -0.53564453
0.034240723 -0.088012695 -0.53808594
0.036834717 -0.088195801 -0.5390625
0.039489746 -0.088562012 -0.54101562
0.042114258 -0.088684082 -0.54199219
0.044799805 -0.089050293 -0.54394531
0.047515869 -0.089355469 -0.54589844
0.050170898 -0.089538574 -0.546875
0.052825928 -0.089660645 -0.54785156
0.055480957 -0.08984375 -0.54882812
0.058258057 -0.090148926 -0.55078125
0.061065674 -0.090515137 -0.55273438
0.063842773 -0.090820312 -0.5546875
0.011520386 -0.08972168 -0.53271484
0.013954163 -0.089355469 -0.53076172
0.016433716 -0.089355469 -0.53076172
