# .PCD v0.7 - Point Cloud Data file format
VERSION 0.7
FIELDS x y z
SIZE 4 4 4
TYPE F F F
COUNT 1 1 1
WIDTH 1291
HEIGHT 1
VIEWPOINT 0 0 0 1 0 0 0
POINTS 1291
DATA ascii
-0.15930176 -0.013076782 -0.46459961
-0.15649414 -0.013015747 -0.46264648
-0.15368652 -0.012962341 -0.46069336
-0.15112305 -0.012931824 -0.4597168
-0.14831543 -0.012878418 -0.45776367
-0.14562988 -0.012817383 -0.45556641
-0.14318848 -0.012794495 -0.45458984
-0.14038086 -0.012733459 -0.45263672
-0.1373291 -0.012649536 -0.44970703
-0.13464355 -0.01259613 -0.44750977
-0.13220215 -0.012565613 -0.4465332
-0.12963867 -0.012512207 -0.44458008
-0.12719727 -0.012481689 -0.44360352
-0.12487793 -0.012451172 -0.44262695
-0.12255859 -0.012428284 -0.44165039
-0.1204834 -0.012428284 -0.44165039
-0.1184082 -0.012428284 -0.44165039
-0.11633301 -0.012428284 -0.44165039
-0.11425781 -0.012428284 -0.44165039
-0.11248779 -0.012451172 -0.44262695
-0.11065674 -0.012481689 -0.44360352
-0.10882568 -0.012512207 -0.44458008
-0.10699463 -0.012535095 -0.44555664
-0.10583496 -0.012649536 -0.44970703
-0.10491943 -0.012794495 -0.45458984
-0.10369873 -0.012908936 -0.45874023
-0.10198975 -0.012962341 -0.46069336
-0.10028076 -0.013015747 -0.46264648
-0.098754883 -0.01309967 -0.46557617
-0.096984863 -0.013160706 -0.46777344
-0.095214844 -0.013214111 -0.46972656
-0.09362793 -0.013298035 -0.47265625
-0.091796875 -0.01335907 -0.47485352
-0.08996582 -0.013412476 -0.47680664
-0.088256836 -0.013496399 -0.47973633
-0.086364746 -0.013557434 -0.48168945
-0.084838867 -0.013664246 -0.48583984
-0.083068848 -0.013755798 -0.48876953
-0.081298828 -0.013839722 -0.49169922
-0.079345703 -0.013893127 -0.49389648
-0.077453613 -0.013977051 -0.49682617
-0.18811035 -0.015838623 -0.48266602
-0.18505859 -0.015777588 -0.48071289
-0.18200684 -0.015701294 -0.47875977
-0.17907715 -0.015640259 -0.47680664
-0.17614746 -0.015579224 -0.47485352
-0.17346191 -0.015541077 -0.47363281
-0.17053223 -0.015480042 -0.47167969
-0.16760254 -0.015411377 -0.46972656
-0.16479492 -0.015342712 -0.46777344
-0.16186523 -0.015281677 -0.46557617
-0.15930176 -0.01524353 -0.46459961
-0.15649414 -0.015182495 -0.46264648
-0.15368652 -0.015113831 -0.46069336
-0.15112305 -0.015083313 -0.4597168
-0.14831543 -0.015014648 -0.45776367
-0.14562988 -0.014953613 -0.45556641
-0.14318848 -0.014915466 -0.45458984
-0.14013672 -0.014816284 -0.45166016
-0.1373291 -0.014755249 -0.44970703
-0.13464355 -0.014686584 -0.44750977
-0.13195801 -0.01461792 -0.44555664
-0.12963867 -0.014587402 -0.44458008
-0.12719727 -0.014556885 -0.44360352
-0.12487793 -0.014518738 -0.44262695
-0.12255859 -0.01448822 -0.44165039
-0.1204834 -0.01448822 -0.44165039
-0.1184082 -0.01448822 -0.44165039
-0.11633301 -0.01448822 -0.44165039
-0.11425781 -0.01448822 -0.44165039
-0.11248779 -0.014518738 -0.44262695
-0.11065674 -0.014556885 -0.44360352
-0.10882568 -0.014587402 -0.44458008
-0.10699463 -0.01461792 -0.44555664
-0.10369873 -0.015052795 -0.45874023
-0.10198975 -0.015113831 -0.46069336
-0.10028076 -0.015182495 -0.46264648
-0.098510742 -0.01524353 -0.46459961
-0.096984863 -0.015342712 -0.46777344
-0.095214844 -0.015411377 -0.46972656
-0.09362793 -0.015510559 -0.47265625
-0.091796875 -0.015579224 -0.47485352
-0.090148926 -0.015670776 -0.4777832
-0.088256836 -0.015731812 -0.47973633
-0.086547852 -0.015838623 -0.48266602
-0.084838867 -0.015930176 -0.48583984
-0.083068848 -0.016036987 -0.48876953
-0.081298828 -0.01612854 -0.49169922
-0.079345703 -0.016204834 -0.49389648
-0.077453613 -0.016296387 -0.49682617
-0.075622559 -0.016403198 -0.49975586
-0.19116211 -0.018173218 -0.48486328
-0.18811035 -0.018096924 -0.48266602
-0.18505859 -0.01802063 -0.48071289
-0.18200684 -0.017944336 -0.47875977
-0.17907715 -0.017868042 -0.47680664
-0.17614746 -0.017791748 -0.47485352
-0.17346191 -0.01776123 -0.47363281
-0.17053223 -0.017684937 -0.47167969
-0.16760254 -0.017608643 -0.46972656
-0.16479492 -0.017532349 -0.46777344
-0.16186523 -0.017456055 -0.46557617
-0.15930176 -0.017410278 -0.46459961
-0.15649414 -0.017333984 -0.46264648
-0.15368652 -0.01725769 -0.46069336
-0.15087891 -0.017196655 -0.45874023
-0.14831543 -0.017150879 -0.45776367
-0.14562988 -0.017074585 -0.45556641
-0.14282227 -0.016998291 -0.45361328
-0.14013672 -0.016921997 -0.45166016
-0.1373291 -0.016845703 -0.44970703
-0.13464355 -0.016769409 -0.44750977
-0.13220215 -0.016738892 -0.4465332
-0.12963867 -0.016662598 -0.44458008
-0.12719727 -0.01663208 -0.44360352
-0.12487793 -0.016586304 -0.44262695
-0.12255859 -0.016555786 -0.44165039
-0.1204834 -0.016555786 -0.44165039
-0.1184082 -0.016555786 -0.44165039
-0.11633301 -0.016555786 -0.44165039
-0.11456299 -0.016586304 -0.44262695
-0.11248779 -0.016586304 -0.44262695
-0.11065674 -0.01663208 -0.44360352
-0.10882568 -0.016662598 -0.44458008
-0.10723877 -0.016738892 -0.4465332
-0.10656738 -0.016967773 -0.45263672
-0.10491943 -0.017044067 -0.45458984
-0.10345459 -0.017150879 -0.45776367
-0.10174561 -0.017227173 -0.4597168
-0.10028076 -0.017333984 -0.46264648
-0.098510742 -0.017410278 -0.46459961
-0.096984863 -0.017532349 -0.46777344
-0.095214844 -0.017608643 -0.46972656
-0.09362793 -0.017715454 -0.47265625
-0.091796875 -0.017791748 -0.47485352
-0.090148926 -0.01789856 -0.4777832
-0.088256836 -0.017974854 -0.47973633
-0.086547852 -0.018096924 -0.48266602
-0.084838867 -0.018203735 -0.48583984
-0.083068848 -0.018325806 -0.48876953
-0.081298828 -0.018432617 -0.49169922
-0.079345703 -0.018508911 -0.49389648
-0.077453613 -0.018615723 -0.49682617
-0.075622559 -0.018737793 -0.49975586
-0.19116211 -0.020431519 -0.48486328
-0.18811035 -0.020355225 -0.48266602
-0.18505859 -0.020263672 -0.48071289
-0.18200684 -0.020187378 -0.47875977
-0.17907715 -0.020095825 -0.47680664
-0.17614746 -0.020004272 -0.47485352
-0.17346191 -0.019973755 -0.47363281
-0.17053223 -0.019882202 -0.47167969
-0.16760254 -0.019805908 -0.46972656
-0.16479492 -0.019714355 -0.46777344
-0.16186523 -0.019622803 -0.46557617
-0.15930176 -0.019592285 -0.46459961
-0.15649414 -0.019500732 -0.46264648
-0.15368652 -0.019424438 -0.46069336
-0.15087891 -0.019332886 -0.45874023
-0.14831543 -0.019287109 -0.45776367
-0.14562988 -0.019210815 -0.45556641
-0.14282227 -0.019119263 -0.45361328
-0.14013672 -0.019042969 -0.45166016
-0.1373291 -0.018951416 -0.44970703
-0.13464355 -0.018875122 -0.44750977
-0.13220215 -0.018829346 -0.4465332
-0.12963867 -0.018737793 -0.44458008
-0.12719727 -0.018692017 -0.44360352
-0.12487793 -0.018661499 -0.44262695
-0.12280273 -0.018661499 -0.44262695
-0.1204834 -0.018615723 -0.44165039
-0.1184082 -0.018615723 -0.44165039
-0.11633301 -0.018615723 -0.44165039
-0.11456299 -0.018661499 -0.44262695
-0.11273193 -0.018692017 -0.44360352
-0.11065674 -0.018692017 -0.44360352
-0.10906982 -0.018783569 -0.44555664
-0.10723877 -0.018829346 -0.4465332
-0.10656738 -0.019073486 -0.45263672
-0.10516357 -0.019210815 -0.45556641
-0.10345459 -0.019287109 -0.45776367
-0.10174561 -0.019378662 -0.4597168
-0.10028076 -0.019500732 -0.46264648
-0.098510742 -0.019592285 -0.46459961
-0.096984863 -0.019714355 -0.46777344
-0.095214844 -0.019805908 -0.46972656
-0.09362793 -0.019927979 -0.47265625
-0.091796875 -0.020004272 -0.47485352
-0.090148926 -0.020141602 -0.4777832
-0.088256836 -0.020217896 -0.47973633
-0.086547852 -0.020355225 -0.48266602
-0.084838867 -0.020477295 -0.48583984
-0.083068848 -0.020599365 -0.48876953
-0.081298828 -0.020736694 -0.49169922
-0.079345703 -0.020812988 -0.49389648
-0.077453613 -0.020935059 -0.49682617
-0.075622559 -0.021072388 -0.49975586
-0.073730469 -0.021194458 -0.50292969
-0.19421387 -0.022796631 -0.48681641
-0.19116211 -0.022705078 -0.48486328
-0.18811035 -0.022613525 -0.48266602
-0.18505859 -0.022506714 -0.48071289
-0.18200684 -0.022415161 -0.47875977
-0.17907715 -0.022323608 -0.47680664
-0.17651367 -0.022277832 -0.47583008
-0.17346191 -0.022186279 -0.47363281
-0.17053223 -0.022094727 -0.47167969
-0.16760254 -0.021987915 -0.46972656
-0.16479492 -0.021896362 -0.46777344
-0.16186523 -0.02180481 -0.46557617
-0.15930176 -0.021759033 -0.46459961
-0.15649414 -0.02166748 -0.46264648
-0.15368652 -0.021575928 -0.46069336
-0.15112305 -0.021530151 -0.4597168
-0.14831543 -0.021438599 -0.45776367
-0.14562988 -0.021331787 -0.45556641
-0.14282227 -0.021240234 -0.45361328
-0.14013672 -0.021148682 -0.45166016
-0.1373291 -0.021057129 -0.44970703
-0.1348877 -0.021011353 -0.44873047
-0.13220215 -0.0209198 -0.4465332
-0.12963867 -0.020812988 -0.44458008
-0.12719727 -0.020767212 -0.44360352
-0.12487793 -0.020721436 -0.44262695
-0.12280273 -0.020721436 -0.44262695
-0.1204834 -0.020675659 -0.44165039
-0.1184082 -0.020675659 -0.44165039
-0.11633301 -0.020675659 -0.44165039
-0.11456299 -0.020721436 -0.44262695
-0.11273193 -0.020767212 -0.44360352
-0.11090088 -0.020812988 -0.44458008
-0.10681152 -0.021240234 -0.45361328
-0.10516357 -0.021331787 -0.45556641
-0.10345459 -0.021438599 -0.45776367
-0.10174561 -0.021530151 -0.4597168
-0.10028076 -0.02166748 -0.46264648
-0.098510742 -0.021759033 -0.46459961
-0.096984863 -0.021896362 -0.46777344
-0.095214844 -0.021987915 -0.46972656
-0.09362793 -0.022140503 -0.47265625
-0.091796875 -0.022232056 -0.47485352
-0.090148926 -0.022369385 -0.4777832
-0.088256836 -0.022460938 -0.47973633
-0.086547852 -0.022613525 -0.48266602
-0.084838867 -0.022750854 -0.48583984
-0.083068848 -0.022888184 -0.48876953
-0.081298828 -0.023025513 -0.49169922
-0.079345703 -0.023117065 -0.49389648
-0.077453613 -0.023269653 -0.49682617
-0.075622559 -0.023406982 -0.49975586
-0.073730469 -0.023544312 -0.50292969
-0.071777344 -0.023681641 -0.50585938
-0.19689941 -0.025115967 -0.48779297
-0.19421387 -0.02507019 -0.48681641
-0.19116211 -0.024963379 -0.48486328
-0.18811035 -0.024856567 -0.48266602
-0.18505859 -0.024765015 -0.48071289
-0.18200684 -0.024658203 -0.47875977
-0.17907715 -0.024551392 -0.47680664
-0.17651367 -0.024505615 -0.47583008
-0.17346191 -0.024398804 -0.47363281
-0.17053223 -0.024291992 -0.47167969
-0.16760254 -0.024185181 -0.46972656
-0.16479492 -0.024093628 -0.46777344
-0.16186523 -0.023986816 -0.46557617
-0.15930176 -0.023925781 -0.46459961
-0.15649414 -0.023834229 -0.46264648
-0.15368652 -0.023727417 -0.46069336
-0.15112305 -0.023666382 -0.4597168
-0.14831543 -0.023574829 -0.45776367
-0.14562988 -0.023468018 -0.45556641
-0.14282227 -0.023361206 -0.45361328
-0.14013672 -0.023254395 -0.45166016
-0.1373291 -0.023162842 -0.44970703
-0.1348877 -0.023101807 -0.44873047
-0.13220215 -0.022994995 -0.4465332
-0.12988281 -0.022949219 -0.44555664
-0.12719727 -0.022842407 -0.44360352
-0.12487793 -0.022796631 -0.44262695
-0.12280273 -0.022796631 -0.44262695
-0.1204834 -0.022735596 -0.44165039
-0.1184082 -0.022735596 -0.44165039
-0.11663818 -0.022796631 -0.44262695
-0.11456299 -0.022796631 -0.44262695
-0.11273193 -0.022842407 -0.44360352
-0.11114502 -0.022949219 -0.44555664
-0.10955811 -0.02305603 -0.44750977
-0.10821533 -0.023208618 -0.45068359
-0.10656738 -0.02331543 -0.45263672
-0.10516357 -0.023468018 -0.45556641
-0.10345459 -0.023574829 -0.45776367
-0.10174561 -0.023666382 -0.4597168
-0.10028076 -0.023834229 -0.46264648
-0.098510742 -0.023925781 -0.46459961
-0.096984863 -0.024093628 -0.46777344
-0.095214844 -0.024185181 -0.46972656
-0.09362793 -0.024353027 -0.47265625
-0.091796875 -0.02444458 -0.47485352
-0.090148926 -0.024597168 -0.4777832
-0.088439941 -0.024765015 -0.48071289
-0.086547852 -0.024856567 -0.48266602
-0.084838867 -0.025024414 -0.48583984
-0.083068848 -0.025177002 -0.48876953
-0.081298828 -0.02532959 -0.49169922
-0.079345703 -0.025436401 -0.49389648
-0.077453613 -0.025588989 -0.49682617
-0.075622559 -0.025741577 -0.49975586
-0.073730469 -0.025894165 -0.50292969
-0.071777344 -0.026046753 -0.50585938
-0.19958496 -0.02746582 -0.48876953
-0.19689941 -0.027404785 -0.48779297
-0.19421387 -0.02734375 -0.48681641
-0.19116211 -0.027236938 -0.48486328
-0.18811035 -0.027114868 -0.48266602
-0.18505859 -0.027008057 -0.48071289
-0.18200684 -0.026901245 -0.47875977
-0.17907715 -0.026779175 -0.47680664
-0.17651367 -0.02671814 -0.47583008
-0.17346191 -0.026611328 -0.47363281
-0.17053223 -0.026504517 -0.47167969
-0.16760254 -0.026382446 -0.46972656
-0.16479492 -0.026275635 -0.46777344
-0.16186523 -0.026153564 -0.46557617
-0.15930176 -0.026107788 -0.46459961
-0.15649414 -0.025985718 -0.46264648
-0.15368652 -0.025878906 -0.46069336
-0.15112305 -0.025817871 -0.4597168
-0.14831543 -0.02571106 -0.45776367
-0.14562988 -0.025604248 -0.45556641
-0.14282227 -0.025482178 -0.45361328
-0.14013672 -0.025375366 -0.45166016
-0.1373291 -0.025253296 -0.44970703
-0.1348877 -0.02520752 -0.44873047
-0.13220215 -0.025085449 -0.4465332
-0.12988281 -0.025039673 -0.44555664
-0.12719727 -0.024917603 -0.44360352
-0.12487793 -0.024856567 -0.44262695
-0.12280273 -0.024856567 -0.44262695
-0.12072754 -0.024856567 -0.44262695
-0.11865234 -0.024856567 -0.44262695
-0.11663818 -0.024856567 -0.44262695
-0.11480713 -0.024917603 -0.44360352
-0.11297607 -0.024978638 -0.44458008
-0.11114502 -0.025039673 -0.44555664
-0.10955811 -0.025146484 -0.44750977
-0.10821533 -0.025314331 -0.45068359
-0.10656738 -0.025421143 -0.45263672
-0.10516357 -0.025604248 -0.45556641
-0.10345459 -0.02571106 -0.45776367
-0.10174561 -0.025817871 -0.4597168
-0.10028076 -0.025985718 -0.46264648
-0.098510742 -0.026107788 -0.46459961
-0.096984863 -0.026275635 -0.46777344
-0.095214844 -0.026382446 -0.46972656
-0.09362793 -0.026550293 -0.47265625
-0.091796875 -0.026672363 -0.47485352
-0.090148926 -0.02684021 -0.4777832
-0.088439941 -0.027008057 -0.48071289
-0.086547852 -0.027114868 -0.48266602
-0.084838867 -0.027282715 -0.48583984
-0.083068848 -0.02746582 -0.48876953
-0.081298828 -0.027633667 -0.49169922
-0.079345703 -0.027740479 -0.49389648
-0.077453613 -0.027908325 -0.49682617
-0.075622559 -0.028076172 -0.49975586
-0.073730469 -0.028244019 -0.50292969
-0.071777344 -0.028411865 -0.50585938
-0.069824219 -0.028579712 -0.50878906
-0.19958496 -0.02973938 -0.48876953
-0.19689941 -0.029678345 -0.48779297
-0.19384766 -0.029556274 -0.48583984
-0.19116211 -0.029495239 -0.48486328
-0.18811035 -0.029373169 -0.48266602
-0.18505859 -0.029251099 -0.48071289
-0.18200684 -0.029129028 -0.47875977
-0.17907715 -0.029006958 -0.47680664
-0.17651367 -0.028945923 -0.47583008
-0.17346191 -0.028823853 -0.47363281
-0.17053223 -0.028701782 -0.47167969
-0.16760254 -0.028579712 -0.46972656
-0.16479492 -0.028457642 -0.46777344
-0.16186523 -0.028335571 -0.46557617
-0.15930176 -0.028274536 -0.46459961
-0.15649414 -0.028152466 -0.46264648
-0.15368652 -0.028030396 -0.46069336
-0.15112305 -0.02796936 -0.4597168
-0.14831543 -0.02784729 -0.45776367
-0.14562988 -0.02772522 -0.45556641
-0.14282227 -0.027603149 -0.45361328
-0.14013672 -0.027481079 -0.45166016
-0.13769531 -0.027420044 -0.45068359
-0.1348877 -0.027297974 -0.44873047
-0.13220215 -0.027175903 -0.4465332
-0.12988281 -0.027114868 -0.44555664
-0.12719727 -0.026992798 -0.44360352
-0.12512207 -0.026992798 -0.44360352
-0.12280273 -0.026931763 -0.44262695
-0.12072754 -0.026931763 -0.44262695
-0.11865234 -0.026931763 -0.44262695
-0.11663818 -0.026931763 -0.44262695
-0.11480713 -0.026992798 -0.44360352
-0.11297607 -0.027053833 -0.44458008
-0.11114502 -0.027114868 -0.44555664
-0.10980225 -0.027297974 -0.44873047
-0.10821533 -0.027420044 -0.45068359
-0.10656738 -0.027542114 -0.45263672
-0.10491943 -0.027664185 -0.45458984
-0.10345459 -0.02784729 -0.45776367
-0.10174561 -0.02796936 -0.4597168
-0.10028076 -0.028152466 -0.46264648
-0.098510742 -0.028274536 -0.46459961
-0.096984863 -0.028457642 -0.46777344
-0.095214844 -0.028579712 -0.46972656
-0.09362793 -0.028762817 -0.47265625
-0.09197998 -0.028945923 -0.47583008
-0.090148926 -0.029067993 -0.4777832
-0.088439941 -0.029251099 -0.48071289
-0.086547852 -0.029373169 -0.48266602
-0.084838867 -0.029556274 -0.48583984
-0.083068848 -0.02973938 -0.48876953
-0.081298828 -0.029922485 -0.49169922
-0.079467773 -0.030105591 -0.49487305
-0.077636719 -0.030288696 -0.49780273
-0.075622559 -0.030410767 -0.49975586
-0.073730469 -0.030593872 -0.50292969
-0.071777344 -0.030776978 -0.50585938
-0.069824219 -0.030960083 -0.50878906
-0.20227051 -0.032073975 -0.48974609
-0.19958496 -0.032012939 -0.48876953
-0.19689941 -0.031951904 -0.48779297
-0.19384766 -0.031829834 -0.48583984
-0.19116211 -0.031768799 -0.48486328
-0.18811035 -0.031616211 -0.48266602
-0.18505859 -0.031494141 -0.48071289
-0.18200684 -0.03137207 -0.47875977
-0.17907715 -0.031234741 -0.47680664
-0.17651367 -0.031173706 -0.47583008
-0.17346191 -0.031036377 -0.47363281
-0.17053223 -0.030914307 -0.47167969
-0.16760254 -0.030776978 -0.46972656
-0.16479492 -0.030639648 -0.46777344
-0.16186523 -0.030517578 -0.46557617
-0.15930176 -0.030456543 -0.46459961
-0.15649414 -0.030319214 -0.46264648
-0.15368652 -0.030181885 -0.46069336
-0.15112305 -0.03012085 -0.4597168
-0.14831543 -0.029983521 -0.45776367
-0.14562988 -0.02986145 -0.45556641
-0.14282227 -0.029724121 -0.45361328
-0.14013672 -0.029586792 -0.45166016
-0.13769531 -0.029525757 -0.45068359
-0.1348877 -0.029403687 -0.44873047
-0.13220215 -0.029266357 -0.4465332
-0.12988281 -0.029205322 -0.44555664
-0.12756348 -0.029129028 -0.44458008
-0.12512207 -0.029067993 -0.44360352
-0.12280273 -0.029006958 -0.44262695
-0.12072754 -0.029006958 -0.44262695
-0.11865234 -0.029006958 -0.44262695
-0.11663818 -0.029006958 -0.44262695
-0.11480713 -0.029067993 -0.44360352
-0.11297607 -0.029129028 -0.44458008
-0.11138916 -0.029266357 -0.4465332
-0.10980225 -0.029403687 -0.44873047
-0.10821533 -0.029525757 -0.45068359
-0.10656738 -0.029663086 -0.45263672
-0.10516357 -0.02986145 -0.45556641
-0.10345459 -0.029983521 -0.45776367
-0.10174561 -0.03012085 -0.4597168
-0.10028076 -0.030319214 -0.46264648
-0.098510742 -0.030456543 -0.46459961
-0.096984863 -0.030639648 -0.46777344
-0.095397949 -0.030838013 -0.47070312
-0.09362793 -0.030975342 -0.47265625
-0.09197998 -0.031173706 -0.47583008
-0.090148926 -0.031311035 -0.4777832
-0.088439941 -0.031494141 -0.48071289
-0.086730957 -0.031677246 -0.48388672
-0.084838867 -0.031829834 -0.48583984
-0.083068848 -0.032012939 -0.48876953
-0.081298828 -0.032226562 -0.49169922
-0.079467773 -0.032409668 -0.49487305
-0.077636719 -0.032623291 -0.49780273
-0.075744629 -0.032806396 -0.50048828
-0.073852539 -0.03302002 -0.50390625
-0.071777344 -0.03314209 -0.50585938
-0.069824219 -0.033325195 -0.50878906
-0.067749023 -0.033477783 -0.51074219
-0.20458984 -0.034362793 -0.48974609
-0.2019043 -0.034301758 -0.48876953
-0.19921875 -0.034240723 -0.48779297
-0.1965332 -0.03414917 -0.48681641
-0.19384766 -0.034088135 -0.48583984
-0.1907959 -0.033966064 -0.48388672
-0.18811035 -0.033874512 -0.48266602
-0.18505859 -0.033752441 -0.48071289
-0.18200684 -0.033599854 -0.47875977
-0.17907715 -0.033447266 -0.47680664
-0.17651367 -0.03338623 -0.47583008
-0.17346191 -0.033233643 -0.47363281
-0.17053223 -0.033111572 -0.47167969
-0.16760254 -0.032958984 -0.46972656
-0.16479492 -0.032836914 -0.46777344
-0.16186523 -0.032684326 -0.46557617
-0.15930176 -0.032623291 -0.46459961
-0.15649414 -0.032470703 -0.46264648
-0.15368652 -0.032318115 -0.46069336
-0.15112305 -0.03225708 -0.4597168
-0.14831543 -0.03213501 -0.45776367
-0.14562988 -0.031982422 -0.45556641
-0.14282227 -0.031829834 -0.45361328
-0.14013672 -0.031707764 -0.45166016
-0.13769531 -0.031616211 -0.45068359
-0.1348877 -0.031494141 -0.44873047
-0.13220215 -0.031341553 -0.4465332
-0.12988281 -0.031280518 -0.44555664
-0.12756348 -0.031219482 -0.44458008
-0.12512207 -0.031143188 -0.44360352
-0.12280273 -0.031066895 -0.44262695
-0.12072754 -0.031066895 -0.44262695
-0.11865234 -0.031066895 -0.44262695
-0.11663818 -0.031066895 -0.44262695
-0.11480713 -0.031143188 -0.44360352
-0.11297607 -0.031219482 -0.44458008
-0.11138916 -0.031341553 -0.4465332
-0.10980225 -0.031494141 -0.44873047
-0.10821533 -0.031616211 -0.45068359
-0.10656738 -0.031768799 -0.45263672
-0.10516357 -0.031982422 -0.45556641
-0.10345459 -0.03213501 -0.45776367
-0.10174561 -0.03225708 -0.4597168
-0.10028076 -0.032470703 -0.46264648
-0.098510742 -0.032623291 -0.46459961
-0.096984863 -0.032836914 -0.46777344
-0.095397949 -0.033050537 -0.47070312
-0.09362793 -0.033172607 -0.47265625
-0.09197998 -0.03338623 -0.47583008
-0.090148926 -0.033538818 -0.4777832
-0.088439941 -0.033752441 -0.48071289
-0.086730957 -0.033966064 -0.48388672
-0.085021973 -0.03414917 -0.48681641
-0.083068848 -0.034301758 -0.48876953
-0.081298828 -0.034515381 -0.49169922
-0.079467773 -0.034729004 -0.49487305
-0.077636719 -0.034942627 -0.49780273
-0.075744629 -0.03515625 -0.50048828
-0.073852539 -0.035369873 -0.50390625
-0.071777344 -0.035491943 -0.50585938
-0.069824219 -0.035705566 -0.50878906
-0.067749023 -0.035858154 -0.51074219
-0.20458984 -0.036651611 -0.48974609
-0.2019043 -0.036590576 -0.48876953
-0.19921875 -0.036529541 -0.48779297
-0.1965332 -0.036437988 -0.48681641
-0.19384766 -0.036376953 -0.48583984
-0.1907959 -0.036224365 -0.48388672
-0.18811035 -0.036132812 -0.48266602
-0.18505859 -0.035980225 -0.48071289
-0.18200684 -0.035827637 -0.47875977
-0.17907715 -0.035675049 -0.47680664
-0.17614746 -0.035552979 -0.47485352
-0.17346191 -0.035461426 -0.47363281
-0.17053223 -0.035308838 -0.47167969
-0.16760254 -0.03515625 -0.46972656
-0.16479492 -0.035003662 -0.46777344
-0.16186523 -0.034851074 -0.46557617
-0.15930176 -0.034790039 -0.46459961
-0.15649414 -0.034637451 -0.46264648
-0.15368652 -0.034484863 -0.46069336
-0.15112305 -0.034423828 -0.4597168
-0.14831543 -0.03427124 -0.45776367
-0.14562988 -0.034118652 -0.45556641
-0.14282227 -0.033966064 -0.45361328
-0.14013672 -0.033813477 -0.45166016
-0.13769531 -0.033721924 -0.45068359
-0.1348877 -0.033569336 -0.44873047
-0.13220215 -0.033447266 -0.4465332
-0.12988281 -0.033355713 -0.44555664
-0.12756348 -0.033294678 -0.44458008
-0.12512207 -0.033203125 -0.44360352
-0.12280273 -0.03314209 -0.44262695
-0.12072754 -0.03314209 -0.44262695
-0.11865234 -0.03314209 -0.44262695
-0.11663818 -0.03314209 -0.44262695
-0.11480713 -0.033203125 -0.44360352
-0.11297607 -0.033294678 -0.44458008
-0.11138916 -0.033447266 -0.4465332
-0.10980225 -0.033569336 -0.44873047
-0.10821533 -0.033721924 -0.45068359
-0.10656738 -0.033874512 -0.45263672
-0.10516357 -0.034118652 -0.45556641
-0.10345459 -0.03427124 -0.45776367
-0.10174561 -0.034423828 -0.4597168
-0.10028076 -0.034637451 -0.46264648
-0.098510742 -0.034790039 -0.46459961
-0.096984863 -0.035003662 -0.46777344
-0.095397949 -0.035247803 -0.47070312
-0.09362793 -0.035400391 -0.47265625
-0.09197998 -0.035614014 -0.47583008
-0.090332031 -0.035827637 -0.47875977
-0.088439941 -0.035980225 -0.48071289
-0.086730957 -0.036224365 -0.48388672
-0.085021973 -0.036437988 -0.48681641
-0.083251953 -0.036651611 -0.48974609
-0.081481934 -0.036895752 -0.49291992
-0.079467773 -0.03704834 -0.49487305
-0.077636719 -0.037261963 -0.49780273
-0.075744629 -0.037506104 -0.50048828
-0.073852539 -0.037719727 -0.50390625
-0.071960449 -0.03793335 -0.50683594
-0.069824219 -0.038085938 -0.50878906
-0.067749023 -0.038238525 -0.51074219
-0.065612793 -0.038391113 -0.51269531
-0.20458984 -0.03894043 -0.48974609
-0.2019043 -0.038879395 -0.48876953
-0.19921875 -0.038787842 -0.48779297
-0.1965332 -0.038726807 -0.48681641
-0.19384766 -0.038635254 -0.48583984
-0.1907959 -0.038482666 -0.48388672
-0.18774414 -0.038330078 -0.48168945
-0.18505859 -0.038238525 -0.48071289
-0.18200684 -0.038085938 -0.47875977
-0.17907715 -0.037902832 -0.47680664
-0.17614746 -0.037750244 -0.47485352
-0.1730957 -0.037597656 -0.47265625
-0.17053223 -0.037506104 -0.47167969
-0.16760254 -0.037353516 -0.46972656
-0.16479492 -0.037200928 -0.46777344
-0.16186523 -0.03704834 -0.46557617
-0.15893555 -0.036865234 -0.46362305
-0.15649414 -0.036804199 -0.46264648
-0.15368652 -0.036651611 -0.46069336
-0.15087891 -0.036468506 -0.45874023
-0.14831543 -0.036407471 -0.45776367
-0.14562988 -0.036254883 -0.45556641
-0.14282227 -0.036071777 -0.45361328
-0.14013672 -0.035919189 -0.45166016
-0.13769531 -0.035827637 -0.45068359
-0.1348877 -0.035675049 -0.44873047
-0.13220215 -0.035522461 -0.4465332
-0.12988281 -0.035430908 -0.44555664
-0.12756348 -0.035369873 -0.44458008
-0.12512207 -0.03527832 -0.44360352
-0.12280273 -0.035186768 -0.44262695
-0.12072754 -0.035186768 -0.44262695
-0.11865234 -0.035186768 -0.44262695
-0.11663818 -0.035186768 -0.44262695
-0.11480713 -0.03527832 -0.44360352
-0.11322021 -0.035430908 -0.44555664
-0.11138916 -0.035522461 -0.4465332
-0.10980225 -0.035675049 -0.44873047
-0.10821533 -0.035827637 -0.45068359
-0.10656738 -0.036010742 -0.45263672
-0.10516357 -0.036254883 -0.45556641
-0.10345459 -0.036407471 -0.45776367
-0.10174561 -0.036560059 -0.4597168
-0.10028076 -0.036804199 -0.46264648
-0.098754883 -0.03704834 -0.46557617
-0.096984863 -0.037200928 -0.46777344
-0.095397949 -0.037445068 -0.47070312
-0.093811035 -0.037689209 -0.47363281
-0.09197998 -0.037841797 -0.47583008
-0.090332031 -0.038085938 -0.47875977
-0.088623047 -0.038330078 -0.48168945
-0.086730957 -0.038482666 -0.48388672
-0.085021973 -0.038726807 -0.48681641
-0.083251953 -0.03894043 -0.48974609
-0.081481934 -0.03918457 -0.49291992
-0.079650879 -0.039428711 -0.49584961
-0.077636719 -0.039581299 -0.49780273
-0.075744629 -0.039825439 -0.50048828
-0.073852539 -0.04006958 -0.50390625
-0.071960449 -0.040313721 -0.50683594
-0.069824219 -0.040466309 -0.50878906
-0.067749023 -0.040618896 -0.51074219
-0.065612793 -0.040802002 -0.51269531
-0.20458984 -0.041259766 -0.48974609
-0.2019043 -0.041168213 -0.48876953
-0.19921875 -0.04107666 -0.48779297
-0.1965332 -0.040985107 -0.48681641
-0.19384766 -0.040893555 -0.48583984
-0.1907959 -0.040740967 -0.48388672
-0.18774414 -0.040557861 -0.48168945
-0.18505859 -0.040496826 -0.48071289
-0.18200684 -0.040313721 -0.47875977
-0.17907715 -0.040130615 -0.47680664
-0.17614746 -0.039978027 -0.47485352
-0.1730957 -0.039794922 -0.47265625
-0.17053223 -0.039733887 -0.47167969
-0.16760254 -0.039550781 -0.46972656
-0.16479492 -0.039398193 -0.46777344
-0.16186523 -0.039215088 -0.46557617
-0.15893555 -0.039031982 -0.46362305
-0.15649414 -0.038970947 -0.46264648
-0.15368652 -0.038787842 -0.46069336
-0.15087891 -0.038635254 -0.45874023
-0.14831543 -0.038543701 -0.45776367
-0.14562988 -0.038360596 -0.45556641
-0.14282227 -0.038208008 -0.45361328
-0.14013672 -0.038024902 -0.45166016
-0.13769531 -0.03793335 -0.45068359
-0.1348877 -0.037780762 -0.44873047
-0.13220215 -0.037597656 -0.4465332
-0.12988281 -0.037536621 -0.44555664
-0.12756348 -0.037445068 -0.44458008
-0.12512207 -0.037353516 -0.44360352
-0.12280273 -0.037261963 -0.44262695
-0.12072754 -0.037261963 -0.44262695
-0.11865234 -0.037261963 -0.44262695
-0.11663818 -0.037261963 -0.44262695
-0.11480713 -0.037353516 -0.44360352
-0.11322021 -0.037536621 -0.44555664
-0.11138916 -0.037597656 -0.4465332
-0.10980225 -0.037780762 -0.44873047
-0.10821533 -0.03793335 -0.45068359
-0.10656738 -0.038116455 -0.45263672
-0.10516357 -0.038360596 -0.45556641
-0.10345459 -0.038543701 -0.45776367
-0.10198975 -0.038787842 -0.46069336
-0.10028076 -0.038970947 -0.46264648
-0.098754883 -0.039215088 -0.46557617
-0.096984863 -0.039398193 -0.46777344
-0.095397949 -0.039642334 -0.47070312
-0.093811035 -0.039886475 -0.47363281
-0.092163086 -0.040130615 -0.47680664
-0.090332031 -0.040313721 -0.47875977
-0.088623047 -0.040557861 -0.48168945
-0.086914062 -0.04083252 -0.48486328
-0.085021973 -0.040985107 -0.48681641
-0.083251953 -0.041259766 -0.48974609
-0.081481934 -0.041503906 -0.49291992
-0.079650879 -0.041748047 -0.49584961
-0.077819824 -0.041992188 -0.4987793
-0.075744629 -0.042175293 -0.50048828
-0.073852539 -0.042419434 -0.50390625
-0.071960449 -0.042694092 -0.50683594
-0.069824219 -0.04284668 -0.50878906
-0.067749023 -0.043029785 -0.51074219
-0.065612793 -0.043182373 -0.51269531
-0.063354492 -0.043273926 -0.51367188
-0.20458984 -0.043548584 -0.48974609
-0.2019043 -0.043457031 -0.48876953
-0.19921875 -0.043365479 -0.48779297
-0.1965332 -0.043273926 -0.48681641
-0.19384766 -0.043182373 -0.48583984
-0.1907959 -0.042999268 -0.48388672
-0.18774414 -0.042816162 -0.48168945
-0.18505859 -0.042724609 -0.48071289
-0.18200684 -0.042541504 -0.47875977
-0.17907715 -0.042388916 -0.47680664
-0.17614746 -0.042205811 -0.47485352
-0.1730957 -0.042022705 -0.47265625
-0.17053223 -0.041931152 -0.47167969
-0.16760254 -0.041748047 -0.46972656
-0.16479492 -0.041564941 -0.46777344
-0.16186523 -0.041381836 -0.46557617
-0.15893555 -0.04119873 -0.46362305
-0.15649414 -0.041137695 -0.46264648
-0.15368652 -0.04095459 -0.46069336
-0.15087891 -0.040771484 -0.45874023
-0.14807129 -0.040588379 -0.45654297
-0.14562988 -0.040496826 -0.45556641
-0.14282227 -0.040313721 -0.45361328
-0.14013672 -0.040130615 -0.45166016
-0.13769531 -0.040039062 -0.45068359
-0.1348877 -0.039886475 -0.44873047
-0.13220215 -0.039703369 -0.4465332
-0.12988281 -0.039611816 -0.44555664
-0.12756348 -0.039520264 -0.44458008
-0.12512207 -0.039428711 -0.44360352
-0.12280273 -0.039337158 -0.44262695
-0.12072754 -0.039337158 -0.44262695
-0.11865234 -0.039337158 -0.44262695
-0.11663818 -0.039337158 -0.44262695
-0.11480713 -0.039428711 -0.44360352
-0.11322021 -0.039611816 -0.44555664
-0.11138916 -0.039703369 -0.4465332
-0.10980225 -0.039886475 -0.44873047
-0.10821533 -0.040039062 -0.45068359
-0.10681152 -0.040313721 -0.45361328
-0.10516357 -0.040496826 -0.45556641
-0.10345459 -0.040679932 -0.45776367
-0.10198975 -0.04095459 -0.46069336
-0.10028076 -0.041137695 -0.46264648
-0.098754883 -0.041381836 -0.46557617
-0.096984863 -0.041564941 -0.46777344
-0.095397949 -0.0418396 -0.47070312
-0.093811035 -0.042114258 -0.47363281
-0.092163086 -0.042388916 -0.47680664
-0.090332031 -0.042541504 -0.47875977
-0.088623047 -0.042816162 -0.48168945
-0.086914062 -0.04309082 -0.48486328
-0.085205078 -0.043365479 -0.48779297
-0.083251953 -0.043548584 -0.48974609
-0.081481934 -0.043792725 -0.49291992
-0.079650879 -0.044067383 -0.49584961
-0.077819824 -0.044342041 -0.4987793
-0.075927734 -0.044616699 -0.50195312
-0.073852539 -0.044769287 -0.50390625
-0.071960449 -0.045043945 -0.50683594
-0.069824219 -0.045227051 -0.50878906
-0.067749023 -0.045410156 -0.51074219
-0.065612793 -0.045593262 -0.51269531
-0.063354492 -0.045684814 -0.51367188
-0.20727539 -0.045928955 -0.49072266
-0.20458984 -0.045837402 -0.48974609
-0.20227051 -0.045837402 -0.48974609
-0.19958496 -0.045715332 -0.48876953
-0.1965332 -0.045532227 -0.48681641
-0.19384766 -0.045440674 -0.48583984
-0.1907959 -0.045257568 -0.48388672
-0.18774414 -0.045074463 -0.48168945
-0.18505859 -0.04498291 -0.48071289
-0.18200684 -0.044799805 -0.47875977
-0.17907715 -0.044616699 -0.47680664
-0.17614746 -0.044403076 -0.47485352
-0.1730957 -0.044219971 -0.47265625
-0.17053223 -0.044128418 -0.47167969
-0.16760254 -0.043945312 -0.46972656
-0.16479492 -0.043762207 -0.46777344
-0.16186523 -0.043579102 -0.46557617
-0.15893555 -0.043395996 -0.46362305
-0.15649414 -0.043273926 -0.46264648
-0.15368652 -0.04309082 -0.46069336
-0.15087891 -0.042907715 -0.45874023
-0.14831543 -0.042816162 -0.45776367
-0.14562988 -0.042633057 -0.45556641
-0.14282227 -0.042449951 -0.45361328
-0.14013672 -0.042266846 -0.45166016
-0.13769531 -0.042175293 -0.45068359
-0.1348877 -0.04196167 -0.44873047
-0.13220215 -0.041778564 -0.4465332
-0.12988281 -0.041687012 -0.44555664
-0.12756348 -0.041595459 -0.44458008
-0.12512207 -0.041503906 -0.44360352
-0.12280273 -0.041412354 -0.44262695
-0.12072754 -0.041412354 -0.44262695
-0.11865234 -0.041412354 -0.44262695
-0.11663818 -0.041412354 -0.44262695
-0.11480713 -0.041503906 -0.44360352
-0.11322021 -0.041687012 -0.44555664
-0.11138916 -0.041778564 -0.4465332
-0.10980225 -0.04196167 -0.44873047
-0.10821533 -0.042175293 -0.45068359
-0.10681152 -0.042449951 -0.45361328
-0.10516357 -0.042633057 -0.45556641
-0.10345459 -0.042816162 -0.45776367
-0.10198975 -0.04309082 -0.46069336
-0.10028076 -0.043273926 -0.46264648
-0.098754883 -0.043579102 -0.46557617
-0.097167969 -0.04385376 -0.46875
-0.095397949 -0.044036865 -0.47070312
-0.093811035 -0.044311523 -0.47363281
-0.092163086 -0.044616699 -0.47680664
-0.090515137 -0.044891357 -0.47973633
-0.088623047 -0.045074463 -0.48168945
-0.086914062 -0.045349121 -0.48486328
-0.085205078 -0.045623779 -0.48779297
-0.083435059 -0.045928955 -0.49072266
-0.081481934 -0.046112061 -0.49291992
-0.079650879 -0.046386719 -0.49584961
-0.077819824 -0.046661377 -0.4987793
-0.075927734 -0.046936035 -0.50195312
-0.073852539 -0.047149658 -0.50390625
-0.071960449 -0.047424316 -0.50683594
-0.069824219 -0.047607422 -0.50878906
-0.067749023 -0.047790527 -0.51074219
-0.065612793 -0.047973633 -0.51269531
-0.063354492 -0.048065186 -0.51367188
-0.061065674 -0.048187256 -0.51464844
-0.20996094 -0.048309326 -0.49169922
-0.20776367 -0.048309326 -0.49169922
-0.20495605 -0.048217773 -0.49072266
-0.20227051 -0.048126221 -0.48974609
-0.19958496 -0.04800415 -0.48876953
-0.1965332 -0.047821045 -0.48681641
-0.19384766 -0.047729492 -0.48583984
-0.1907959 -0.047515869 -0.48388672
-0.18774414 -0.047332764 -0.48168945
-0.18505859 -0.047210693 -0.48071289
-0.18200684 -0.047027588 -0.47875977
-0.17907715 -0.046844482 -0.47680664
-0.17614746 -0.046630859 -0.47485352
-0.1730957 -0.046447754 -0.47265625
-0.17053223 -0.046325684 -0.47167969
-0.16760254 -0.046142578 -0.46972656
-0.16479492 -0.045928955 -0.46777344
-0.16186523 -0.04574585 -0.46557617
-0.15930176 -0.045654297 -0.46459961
-0.15649414 -0.045440674 -0.46264648
-0.15368652 -0.045257568 -0.46069336
-0.15087891 -0.045043945 -0.45874023
-0.14831543 -0.044952393 -0.45776367
-0.14562988 -0.044769287 -0.45556641
-0.14282227 -0.044555664 -0.45361328
-0.14013672 -0.044372559 -0.45166016
-0.13769531 -0.044281006 -0.45068359
-0.1348877 -0.044067383 -0.44873047
-0.13220215 -0.043884277 -0.4465332
-0.12988281 -0.043762207 -0.44555664
-0.12756348 -0.043670654 -0.44458008
-0.12512207 -0.043579102 -0.44360352
-0.12280273 -0.043487549 -0.44262695
-0.12072754 -0.043487549 -0.44262695
-0.11865234 -0.043487549 -0.44262695
-0.11688232 -0.043579102 -0.44360352
-0.11480713 -0.043579102 -0.44360352
-0.11322021 -0.043762207 -0.44555664
-0.11138916 -0.043884277 -0.4465332
-0.10980225 -0.044067383 -0.44873047
-0.10821533 -0.044281006 -0.45068359
-0.10681152 -0.044555664 -0.45361328
-0.10516357 -0.044769287 -0.45556641
-0.10345459 -0.044952393 -0.45776367
-0.10198975 -0.045257568 -0.46069336
-0.10028076 -0.045440674 -0.46264648
-0.098754883 -0.04574585 -0.46557617
-0.097167969 -0.046051025 -0.46875
-0.09564209 -0.046325684 -0.47167969
-0.093811035 -0.046539307 -0.47363281
-0.092163086 -0.046844482 -0.47680664
-0.090515137 -0.047119141 -0.47973633
-0.088806152 -0.047424316 -0.48266602
-0.086914062 -0.047607422 -0.48486328
-0.085205078 -0.047912598 -0.48779297
-0.083435059 -0.048217773 -0.49072266
-0.081604004 -0.048522949 -0.49389648
-0.079650879 -0.048706055 -0.49584961
-0.077819824 -0.04901123 -0.4987793
-0.075927734 -0.049285889 -0.50195312
-0.074035645 -0.049591064 -0.50488281
-0.071960449 -0.049804688 -0.50683594
-0.070007324 -0.050079346 -0.50976562
-0.067749023 -0.050170898 -0.51074219
-0.065612793 -0.050384521 -0.51269531
-0.063354492 -0.050476074 -0.51367188
-0.061065674 -0.050567627 -0.51464844
-0.21228027 -0.050598145 -0.49169922
-0.21044922 -0.050720215 -0.49291992
-0.20776367 -0.050598145 -0.49169922
-0.20495605 -0.050506592 -0.49072266
-0.20227051 -0.050415039 -0.48974609
-0.19958496 -0.050292969 -0.48876953
-0.19689941 -0.050201416 -0.48779297
-0.19384766 -0.049987793 -0.48583984
-0.1907959 -0.04977417 -0.48388672
-0.18811035 -0.049682617 -0.48266602
-0.18505859 -0.049468994 -0.48071289
-0.18200684 -0.049255371 -0.47875977
-0.17907715 -0.049072266 -0.47680664
-0.17614746 -0.048858643 -0.47485352
-0.1730957 -0.04864502 -0.47265625
-0.17053223 -0.048553467 -0.47167969
-0.16760254 -0.048339844 -0.46972656
-0.16479492 -0.048126221 -0.46777344
-0.16186523 -0.047912598 -0.46557617
-0.15930176 -0.047821045 -0.46459961
-0.15649414 -0.047607422 -0.46264648
-0.15368652 -0.047393799 -0.46069336
-0.15087891 -0.047210693 -0.45874023
-0.14831543 -0.047088623 -0.45776367
-0.14562988 -0.046875 -0.45556641
-0.14282227 -0.046691895 -0.45361328
-0.14013672 -0.046478271 -0.45166016
-0.13769531 -0.046386719 -0.45068359
-0.1348877 -0.046173096 -0.44873047
-0.13220215 -0.045959473 -0.4465332
-0.12988281 -0.04586792 -0.44555664
-0.12756348 -0.04574585 -0.44458008
-0.12512207 -0.045654297 -0.44360352
-0.12280273 -0.045532227 -0.44262695
-0.12072754 -0.045532227 -0.44262695
-0.11865234 -0.045532227 -0.44262695
-0.11688232 -0.045654297 -0.44360352
-0.11505127 -0.04574585 -0.44458008
-0.11322021 -0.04586792 -0.44555664
-0.1116333 -0.046051025 -0.44750977
-0.11004639 -0.046264648 -0.44970703
-0.10845947 -0.046478271 -0.45166016
-0.10681152 -0.046691895 -0.45361328
-0.10516357 -0.046875 -0.45556641
-0.10345459 -0.047088623 -0.45776367
-0.10198975 -0.047393799 -0.46069336
-0.10028076 -0.047607422 -0.46264648
-0.098754883 -0.047912598 -0.46557617
-0.097167969 -0.048248291 -0.46875
-0.09564209 -0.048553467 -0.47167969
-0.093994141 -0.048858643 -0.47485352
-0.092163086 -0.049072266 -0.47680664
-0.090515137 -0.049377441 -0.47973633
-0.088806152 -0.049682617 -0.48266602
-0.086914062 -0.04989624 -0.48486328
-0.085205078 -0.050201416 -0.48779297
-0.083435059 -0.050506592 -0.49072266
-0.081604004 -0.050811768 -0.49389648
-0.079650879 -0.051025391 -0.49584961
-0.077819824 -0.051330566 -0.4987793
-0.075927734 -0.051635742 -0.50195312
-0.074035645 -0.051940918 -0.50488281
-0.071960449 -0.052154541 -0.50683594
-0.070007324 -0.052459717 -0.50976562
-0.067749023 -0.052581787 -0.51074219
-0.065612793 -0.052764893 -0.51269531
-0.063354492 -0.052886963 -0.51367188
-0.060943604 -0.052886963 -0.51367188
-0.21228027 -0.05291748 -0.49169922
-0.20996094 -0.05291748 -0.49169922
-0.20776367 -0.05291748 -0.49169922
-0.20495605 -0.05279541 -0.49072266
-0.20227051 -0.052703857 -0.48974609
-0.19958496 -0.052581787 -0.48876953
-0.19689941 -0.052490234 -0.48779297
-0.19384766 -0.052246094 -0.48583984
-0.1907959 -0.052032471 -0.48388672
-0.18811035 -0.051940918 -0.48266602
-0.18505859 -0.051727295 -0.48071289
-0.18200684 -0.051513672 -0.47875977
-0.17907715 -0.051300049 -0.47680664
-0.17614746 -0.051086426 -0.47485352
-0.17346191 -0.050964355 -0.47363281
-0.17053223 -0.050750732 -0.47167969
-0.16760254 -0.050537109 -0.46972656
-0.16479492 -0.050323486 -0.46777344
-0.16186523 -0.050109863 -0.46557617
-0.15930176 -0.049987793 -0.46459961
-0.15649414 -0.04977417 -0.46264648
-0.15368652 -0.049560547 -0.46069336
-0.15087891 -0.049346924 -0.45874023
-0.14831543 -0.049224854 -0.45776367
-0.14562988 -0.04901123 -0.45556641
-0.14282227 -0.048797607 -0.45361328
-0.14013672 -0.048583984 -0.45166016
-0.13769531 -0.048492432 -0.45068359
-0.1348877 -0.048278809 -0.44873047
-0.13220215 -0.048034668 -0.4465332
-0.12988281 -0.047943115 -0.44555664
-0.12756348 -0.047821045 -0.44458008
-0.12512207 -0.047729492 -0.44360352
-0.12280273 -0.047607422 -0.44262695
-0.12072754 -0.047607422 -0.44262695
-0.11865234 -0.047607422 -0.44262695
-0.11688232 -0.047729492 -0.44360352
-0.11505127 -0.047821045 -0.44458008
-0.11322021 -0.047943115 -0.44555664
-0.1116333 -0.048156738 -0.44750977
-0.11004639 -0.048370361 -0.44970703
-0.10845947 -0.048583984 -0.45166016
-0.10681152 -0.048797607 -0.45361328
-0.10516357 -0.04901123 -0.45556641
-0.10345459 -0.049224854 -0.45776367
-0.10198975 -0.049560547 -0.46069336
-0.10028076 -0.04977417 -0.46264648
-0.098754883 -0.050109863 -0.46557617
-0.097167969 -0.050415039 -0.46875
-0.09564209 -0.050750732 -0.47167969
-0.093994141 -0.051086426 -0.47485352
-0.092346191 -0.051391602 -0.4777832
-0.090515137 -0.051605225 -0.47973633
-0.088806152 -0.051940918 -0.48266602
-0.087097168 -0.052246094 -0.48583984
-0.085205078 -0.052490234 -0.48779297
-0.083435059 -0.05279541 -0.49072266
-0.081604004 -0.053131104 -0.49389648
-0.079772949 -0.053436279 -0.49682617
-0.077819824 -0.053649902 -0.4987793
-0.075927734 -0.053985596 -0.50195312
-0.074035645 -0.054321289 -0.50488281
-0.071960449 -0.054534912 -0.50683594
-0.069824219 -0.054748535 -0.50878906
-0.067749023 -0.054962158 -0.51074219
-0.065490723 -0.055053711 -0.51171875
-0.063232422 -0.055175781 -0.51269531
-0.060943604 -0.055297852 -0.51367188
-0.20776367 -0.055206299 -0.49169922
-0.20544434 -0.055206299 -0.49169922
-0.20263672 -0.055084229 -0.49072266
-0.19958496 -0.054870605 -0.48876953
-0.19689941 -0.054748535 -0.48779297
-0.19384766 -0.054534912 -0.48583984
-0.19116211 -0.054412842 -0.48486328
-0.18811035 -0.054199219 -0.48266602
-0.18505859 -0.053955078 -0.48071289
-0.18200684 -0.053741455 -0.47875977
-0.17907715 -0.053527832 -0.47680664
-0.17651367 -0.053405762 -0.47583008
-0.17346191 -0.053192139 -0.47363281
-0.17053223 -0.052947998 -0.47167969
-0.16760254 -0.052734375 -0.46972656
-0.16479492 -0.052490234 -0.46777344
-0.16186523 -0.052276611 -0.46557617
-0.15930176 -0.052154541 -0.46459961
-0.15649414 -0.051940918 -0.46264648
-0.15368652 -0.051727295 -0.46069336
-0.15087891 -0.051483154 -0.45874023
-0.14831543 -0.051361084 -0.45776367
-0.14562988 -0.051147461 -0.45556641
-0.14282227 -0.050933838 -0.45361328
-0.14013672 -0.050689697 -0.45166016
-0.1373291 -0.050476074 -0.44970703
-0.1348877 -0.050354004 -0.44873047
-0.13220215 -0.050140381 -0.4465332
-0.12988281 -0.050018311 -0.44555664
-0.12756348 -0.04989624 -0.44458008
-0.12512207 -0.049804688 -0.44360352
-0.12280273 -0.049682617 -0.44262695
-0.12072754 -0.049682617 -0.44262695
-0.11865234 -0.049682617 -0.44262695
-0.11688232 -0.049804688 -0.44360352
-0.11505127 -0.04989624 -0.44458008
-0.11322021 -0.050018311 -0.44555664
-0.1116333 -0.050262451 -0.44750977
-0.11004639 -0.050476074 -0.44970703
-0.10845947 -0.050689697 -0.45166016
-0.10681152 -0.050933838 -0.45361328
-0.10516357 -0.051147461 -0.45556641
-0.10345459 -0.051361084 -0.45776367
-0.10198975 -0.051727295 -0.46069336
-0.10046387 -0.052062988 -0.46362305
-0.098937988 -0.052398682 -0.46679688
-0.097412109 -0.052734375 -0.46972656
-0.09564209 -0.052947998 -0.47167969
-0.093994141 -0.053283691 -0.47485352
-0.092346191 -0.053619385 -0.4777832
-0.090515137 -0.053863525 -0.47973633
-0.088806152 -0.054199219 -0.48266602
-0.087097168 -0.054534912 -0.48583984
-0.085205078 -0.054748535 -0.48779297
-0.083435059 -0.055084229 -0.49072266
-0.081604004 -0.055419922 -0.49389648
-0.079772949 -0.055786133 -0.49682617
-0.077819824 -0.055999756 -0.4987793
-0.075927734 -0.056335449 -0.50195312
-0.074035645 -0.056671143 -0.50488281
-0.071960449 -0.056884766 -0.50683594
-0.069824219 -0.057128906 -0.50878906
-0.067749023 -0.057342529 -0.51074219
-0.065490723 -0.0574646 -0.51171875
-0.063232422 -0.05758667 -0.51269531
-0.060943604 -0.057678223 -0.51367188
-0.21228027 -0.057495117 -0.49169922
-0.20996094 -0.057495117 -0.49169922
-0.20776367 -0.057495117 -0.49169922
-0.20544434 -0.057495117 -0.49169922
-0.20263672 -0.057403564 -0.49072266
-0.19958496 -0.057159424 -0.48876953
-0.19689941 -0.057037354 -0.48779297
-0.19384766 -0.056793213 -0.48583984
-0.19116211 -0.056671143 -0.48486328
-0.18811035 -0.05645752 -0.48266602
-0.18505859 -0.056213379 -0.48071289
-0.18200684 -0.055969238 -0.47875977
-0.17944336 -0.055877686 -0.4777832
-0.17651367 -0.055633545 -0.47583008
-0.17346191 -0.055389404 -0.47363281
-0.17053223 -0.055145264 -0.47167969
-0.16760254 -0.054931641 -0.46972656
-0.16479492 -0.0546875 -0.46777344
-0.16186523 -0.054443359 -0.46557617
-0.15930176 -0.054351807 -0.46459961
-0.15649414 -0.054107666 -0.46264648
-0.15368652 -0.053863525 -0.46069336
-0.15087891 -0.053619385 -0.45874023
-0.14831543 -0.053527832 -0.45776367
-0.14562988 -0.053283691 -0.45556641
-0.14282227 -0.053039551 -0.45361328
-0.14013672 -0.052825928 -0.45166016
-0.1373291 -0.052581787 -0.44970703
-0.1348877 -0.052459717 -0.44873047
-0.13220215 -0.052215576 -0.4465332
-0.12988281 -0.052093506 -0.44555664
-0.12756348 -0.052001953 -0.44458008
-0.12512207 -0.051879883 -0.44360352
-0.12280273 -0.051757812 -0.44262695
-0.12072754 -0.051757812 -0.44262695
-0.11865234 -0.051757812 -0.44262695
-0.11688232 -0.051879883 -0.44360352
-0.11505127 -0.052001953 -0.44458008
-0.11322021 -0.052093506 -0.44555664
-0.1116333 -0.052337646 -0.44750977
-0.11004639 -0.052581787 -0.44970703
-0.10845947 -0.052825928 -0.45166016
-0.10681152 -0.053039551 -0.45361328
-0.10516357 -0.053283691 -0.45556641
-0.10345459 -0.053527832 -0.45776367
-0.10223389 -0.053985596 -0.46166992
-0.10070801 -0.054351807 -0.46459961
-0.099182129 -0.0546875 -0.46777344
-0.097412109 -0.054931641 -0.46972656
-0.095825195 -0.055267334 -0.47265625
-0.093994141 -0.055511475 -0.47485352
-0.092346191 -0.055877686 -0.4777832
-0.090698242 -0.056213379 -0.48071289
-0.088806152 -0.05645752 -0.48266602
-0.087097168 -0.056793213 -0.48583984
-0.085388184 -0.057159424 -0.48876953
-0.083435059 -0.057403564 -0.49072266
-0.081604004 -0.057739258 -0.49389648
-0.079772949 -0.058105469 -0.49682617
-0.077819824 -0.058319092 -0.4987793
-0.075927734 -0.058685303 -0.50195312
-0.074035645 -0.059020996 -0.50488281
-0.071960449 -0.059265137 -0.50683594
-0.069824219 -0.059509277 -0.50878906
-0.067749023 -0.0597229 -0.51074219
-0.065490723 -0.059844971 -0.51171875
-0.063232422 -0.059967041 -0.51269531
-0.21191406 -0.059692383 -0.49072266
-0.20996094 -0.059814453 -0.49169922
-0.20727539 -0.059692383 -0.49072266
-0.20458984 -0.059570312 -0.48974609
-0.20227051 -0.059570312 -0.48974609
-0.19958496 -0.059448242 -0.48876953
-0.19689941 -0.059326172 -0.48779297
-0.19384766 -0.059082031 -0.48583984
-0.19116211 -0.058959961 -0.48486328
-0.18811035 -0.05871582 -0.48266602
-0.18505859 -0.05847168 -0.48071289
-0.18249512 -0.058349609 -0.47973633
-0.17944336 -0.058105469 -0.4777832
-0.17651367 -0.057861328 -0.47583008
-0.17346191 -0.057617188 -0.47363281
-0.17053223 -0.057373047 -0.47167969
-0.16760254 -0.057128906 -0.46972656
-0.16479492 -0.056884766 -0.46777344
-0.16186523 -0.056640625 -0.46557617
-0.15930176 -0.056518555 -0.46459961
-0.15649414 -0.056274414 -0.46264648
-0.15368652 -0.056030273 -0.46069336
-0.15087891 -0.055786133 -0.45874023
-0.14831543 -0.055664062 -0.45776367
-0.14562988 -0.055419922 -0.45556641
-0.14282227 -0.055175781 -0.45361328
-0.14013672 -0.054931641 -0.45166016
-0.1373291 -0.0546875 -0.44970703
-0.1348877 -0.05456543 -0.44873047
-0.13220215 -0.054321289 -0.4465332
-0.12988281 -0.054199219 -0.44555664
-0.12756348 -0.054077148 -0.44458008
-0.12512207 -0.053955078 -0.44360352
-0.12280273 -0.053833008 -0.44262695
-0.12072754 -0.053833008 -0.44262695
-0.11865234 -0.053833008 -0.44262695
-0.11688232 -0.053955078 -0.44360352
-0.11505127 -0.054077148 -0.44458008
-0.11352539 -0.054321289 -0.4465332
-0.1116333 -0.054443359 -0.44750977
-0.11004639 -0.0546875 -0.44970703
-0.10845947 -0.054931641 -0.45166016
-0.10681152 -0.055175781 -0.45361328
-0.10534668 -0.055541992 -0.45654297
-0.10369873 -0.055786133 -0.45874023
-0.10223389 -0.056152344 -0.46166992
-0.10070801 -0.056518555 -0.46459961
-0.099182129 -0.056884766 -0.46777344
-0.097412109 -0.057128906 -0.46972656
-0.095825195 -0.057495117 -0.47265625
-0.094177246 -0.057861328 -0.47583008
-0.092346191 -0.058105469 -0.4777832
-0.090698242 -0.05847168 -0.48071289
-0.088806152 -0.05871582 -0.48266602
-0.087097168 -0.059082031 -0.48583984
-0.085388184 -0.059448242 -0.48876953
-0.083435059 -0.059692383 -0.49072266
-0.081604004 -0.060058594 -0.49389648
-0.079772949 -0.060424805 -0.49682617
-0.077819824 -0.060668945 -0.4987793
-0.075927734 -0.061035156 -0.50195312
-0.074035645 -0.061401367 -0.50488281
-0.071960449 -0.061645508 -0.50683594
-0.069824219 -0.061889648 -0.50878906
-0.067626953 -0.062011719 -0.50976562
-0.065490723 -0.062255859 -0.51171875
-0.063049316 -0.062255859 -0.51171875
-0.20959473 -0.061981201 -0.49072266
-0.20727539 -0.061981201 -0.49072266
-0.20458984 -0.061859131 -0.48974609
-0.20227051 -0.061859131 -0.48974609
-0.19958496 -0.061737061 -0.48876953
-0.19689941 -0.061584473 -0.48779297
-0.19384766 -0.061340332 -0.48583984
-0.19116211 -0.061218262 -0.48486328
-0.18811035 -0.060974121 -0.48266602
-0.1854248 -0.060821533 -0.48168945
-0.18249512 -0.060577393 -0.47973633
-0.17944336 -0.060333252 -0.4777832
-0.17651367 -0.060089111 -0.47583008
-0.17346191 -0.059814453 -0.47363281
-0.17053223 -0.059570312 -0.47167969
-0.16760254 -0.059326172 -0.46972656
-0.16479492 -0.059051514 -0.46777344
-0.16186523 -0.058807373 -0.46557617
