# .PCD v0.7 - Point Cloud Data file format
VERSION 0.7
FIELDS x y z
SIZE 4 4 4
TYPE F F F
COUNT 1 1 1
WIDTH 1281
HEIGHT 1
VIEWPOINT 0 0 0 1 0 0 0
POINTS 1281
DATA ascii
0.014953613 -0.015716553 -0.41943359
0.017105103 -0.015914917 -0.42456055
0.019271851 -0.016067505 -0.4284668
0.021377563 -0.01612854 -0.43066406
0.023498535 -0.016204834 -0.43261719
-0.0440979 -0.018615723 -0.44165039
-0.041870117 -0.01852417 -0.43969727
-0.039703369 -0.018493652 -0.43847656
-0.037414551 -0.018356323 -0.43554688
-0.035186768 -0.018280029 -0.43359375
-0.033111572 -0.018234253 -0.43261719
-0.030944824 -0.0181427 -0.43066406
-0.028793335 -0.018066406 -0.4284668
-0.026657104 -0.017974854 -0.42651367
-0.024612427 -0.017944336 -0.42553711
-0.022567749 -0.01789856 -0.42456055
-0.020492554 -0.017807007 -0.42260742
-0.018417358 -0.017730713 -0.42041016
-0.016342163 -0.017593384 -0.41748047
-0.014358521 -0.017562866 -0.41650391
-0.01235199 -0.017471313 -0.41455078
-0.010383606 -0.017425537 -0.41357422
-0.0084152222 -0.017349243 -0.41137695
-0.0064888 -0.017349243 -0.41137695
-0.0045547485 -0.017303467 -0.41040039
-0.0026302338 -0.01725769 -0.40942383
-0.00071716309 -0.01725769 -0.40942383
0.0011959076 -0.01725769 -0.40942383
0.003118515 -0.017303467 -0.41040039
0.0050468445 -0.017349243 -0.41137695
0.0069885254 -0.017379761 -0.41259766
0.008934021 -0.017425537 -0.41357422
0.010925293 -0.01751709 -0.41552734
0.012893677 -0.017562866 -0.41650391
0.019271851 -0.018066406 -0.4284668
0.021377563 -0.0181427 -0.43066406
0.023498535 -0.018234253 -0.43261719
0.025695801 -0.018356323 -0.43554688
0.027862549 -0.018447876 -0.4375
-0.046386719 -0.020767212 -0.44360352
-0.0440979 -0.020675659 -0.44165039
-0.041870117 -0.020584106 -0.43969727
-0.039611816 -0.020492554 -0.4375
-0.037414551 -0.020401001 -0.43554688
-0.035186768 -0.020309448 -0.43359375
-0.033111572 -0.020248413 -0.43261719
-0.030944824 -0.02015686 -0.43066406
-0.028793335 -0.020065308 -0.4284668
-0.02671814 -0.020019531 -0.42749023
-0.024612427 -0.019927979 -0.42553711
-0.022567749 -0.019882202 -0.42456055
-0.020492554 -0.019790649 -0.42260742
-0.018417358 -0.019699097 -0.42041016
-0.016342163 -0.019546509 -0.41748047
-0.014320374 -0.019454956 -0.41552734
-0.01235199 -0.01940918 -0.41455078
-0.010360718 -0.019317627 -0.41259766
-0.0084152222 -0.019271851 -0.41137695
-0.0064888 -0.019271851 -0.41137695
-0.0045547485 -0.019226074 -0.41040039
-0.0026302338 -0.019180298 -0.40942383
-0.00071716309 -0.019180298 -0.40942383
0.0011987686 -0.019226074 -0.41040039
0.003118515 -0.019226074 -0.41040039
0.0050468445 -0.019271851 -0.41137695
0.0069885254 -0.019317627 -0.41259766
0.0089569092 -0.01940918 -0.41455078
0.010925293 -0.019454956 -0.41552734
0.012924194 -0.019546509 -0.41748047
0.014953613 -0.019638062 -0.41943359
0.017150879 -0.019927979 -0.42553711
0.019271851 -0.020065308 -0.4284668
0.021377563 -0.02015686 -0.43066406
0.023498535 -0.020248413 -0.43261719
0.025695801 -0.020401001 -0.43554688
0.027862549 -0.020492554 -0.4375
0.03012085 -0.020629883 -0.44067383
-0.048553467 -0.022903442 -0.44458008
-0.046386719 -0.022842407 -0.44360352
-0.0440979 -0.022735596 -0.44165039
-0.041870117 -0.022644043 -0.43969727
-0.039611816 -0.022537231 -0.4375
-0.037414551 -0.02243042 -0.43554688
-0.03527832 -0.022384644 -0.43457031
-0.033111572 -0.022277832 -0.43261719
-0.030944824 -0.022171021 -0.43066406
-0.028793335 -0.022064209 -0.4284668
-0.02671814 -0.022018433 -0.42749023
-0.024612427 -0.021911621 -0.42553711
-0.022567749 -0.021865845 -0.42456055
-0.02053833 -0.021820068 -0.42358398
-0.018371582 -0.021606445 -0.41943359
-0.016296387 -0.021453857 -0.41650391
-0.014320374 -0.021392822 -0.41552734
-0.012321472 -0.02130127 -0.41357422
-0.010360718 -0.021240234 -0.41259766
-0.0084152222 -0.021194458 -0.41137695
-0.0064888 -0.021194458 -0.41137695
-0.0045547485 -0.021133423 -0.41040039
-0.0026378632 -0.021133423 -0.41040039
-0.00071716309 -0.021087646 -0.40942383
0.0011987686 -0.021133423 -0.41040039
0.003118515 -0.021133423 -0.41040039
0.0050468445 -0.021194458 -0.41137695
0.0069885254 -0.021240234 -0.41259766
0.0089569092 -0.021347046 -0.41455078
0.010948181 -0.021453857 -0.41650391
0.012954712 -0.021560669 -0.41845703
0.014984131 -0.021652222 -0.42041016
0.017105103 -0.021865845 -0.42456055
0.019226074 -0.022018433 -0.42749023
0.021331787 -0.022125244 -0.42944336
0.023498535 -0.022277832 -0.43261719
0.025695801 -0.02243042 -0.43554688
0.027862549 -0.022537231 -0.4375
0.03012085 -0.022689819 -0.44067383
0.032318115 -0.022796631 -0.44262695
-0.050872803 -0.025085449 -0.4465332
-0.048675537 -0.025039673 -0.44555664
-0.046386719 -0.024917603 -0.44360352
-0.0440979 -0.024810791 -0.44165039
-0.041870117 -0.024688721 -0.43969727
-0.039611816 -0.024581909 -0.4375
-0.037414551 -0.024475098 -0.43554688
-0.03527832 -0.024414062 -0.43457031
-0.033111572 -0.024307251 -0.43261719
-0.030944824 -0.024185181 -0.43066406
-0.028793335 -0.024078369 -0.4284668
-0.02671814 -0.024017334 -0.42749023
-0.024673462 -0.023956299 -0.42651367
-0.022567749 -0.023849487 -0.42456055
-0.014320374 -0.023345947 -0.41552734
-0.012321472 -0.023223877 -0.41357422
-0.010360718 -0.023178101 -0.41259766
-0.0084152222 -0.023117065 -0.41137695
-0.0064888 -0.023117065 -0.41137695
-0.0045547485 -0.02305603 -0.41040039
-0.0026378632 -0.02305603 -0.41040039
-0.00071907043 -0.02305603 -0.41040039
0.0011987686 -0.02305603 -0.41040039
0.003118515 -0.02305603 -0.41040039
0.0050468445 -0.023117065 -0.41137695
0.0069885254 -0.023178101 -0.41259766
0.0089569092 -0.023284912 -0.41455078
0.010948181 -0.023391724 -0.41650391
0.012954712 -0.023513794 -0.41845703
0.015022278 -0.023681641 -0.42163086
0.017105103 -0.023849487 -0.42456055
0.019180298 -0.023956299 -0.42651367
0.021331787 -0.024124146 -0.42944336
0.023498535 -0.024307251 -0.43261719
0.025695801 -0.024475098 -0.43554688
0.027862549 -0.024581909 -0.4375
0.03012085 -0.024749756 -0.44067383
0.032318115 -0.024856567 -0.44262695
0.034606934 -0.025039673 -0.44555664
-0.053192139 -0.027297974 -0.44873047
-0.050994873 -0.027236938 -0.44750977
-0.048675537 -0.027114868 -0.44555664
-0.046386719 -0.026992798 -0.44360352
-0.0440979 -0.026870728 -0.44165039
-0.041870117 -0.026748657 -0.43969727
-0.039611816 -0.026626587 -0.4375
-0.037414551 -0.026504517 -0.43554688
-0.03527832 -0.026443481 -0.43457031
-0.033111572 -0.026321411 -0.43261719
-0.030944824 -0.026199341 -0.43066406
-0.02885437 -0.026138306 -0.42944336
-0.02671814 -0.026016235 -0.42749023
-0.024612427 -0.025894165 -0.42553711
-0.022567749 -0.02583313 -0.42456055
-0.02053833 -0.025772095 -0.42358398
-0.016296387 -0.025344849 -0.41650391
-0.014320374 -0.025283813 -0.41552734
-0.012321472 -0.025161743 -0.41357422
-0.010360718 -0.025100708 -0.41259766
-0.0084152222 -0.025039673 -0.41137695
-0.0064888 -0.025039673 -0.41137695
-0.0045547485 -0.024978638 -0.41040039
-0.0026378632 -0.024978638 -0.41040039
-0.00071716309 -0.024917603 -0.40942383
0.0011987686 -0.024978638 -0.41040039
0.003118515 -0.024978638 -0.41040039
0.0050468445 -0.025039673 -0.41137695
0.0069885254 -0.025100708 -0.41259766
0.0089569092 -0.025222778 -0.41455078
0.010948181 -0.025344849 -0.41650391
0.012954712 -0.025466919 -0.41845703
0.015022278 -0.025650024 -0.42163086
0.017105103 -0.02583313 -0.42456055
0.019180298 -0.0259552 -0.42651367
0.021331787 -0.026138306 -0.42944336
0.023498535 -0.026321411 -0.43261719
0.025695801 -0.026504517 -0.43554688
0.027862549 -0.026626587 -0.4375
0.03012085 -0.026809692 -0.44067383
0.03237915 -0.026992798 -0.44360352
0.034606934 -0.027114868 -0.44555664
-0.053314209 -0.029464722 -0.44970703
-0.050994873 -0.029327393 -0.44750977
-0.048675537 -0.029205322 -0.44555664
-0.046386719 -0.029067993 -0.44360352
-0.0440979 -0.028930664 -0.44165039
-0.041870117 -0.028808594 -0.43969727
-0.039611816 -0.028671265 -0.4375
-0.037414551 -0.028549194 -0.43554688
-0.03527832 -0.0284729 -0.43457031
-0.033111572 -0.02835083 -0.43261719
-0.031005859 -0.028274536 -0.43164062
-0.028793335 -0.028076172 -0.4284668
-0.026657104 -0.027954102 -0.42651367
-0.024612427 -0.027877808 -0.42553711
-0.022506714 -0.027755737 -0.42358398
-0.020492554 -0.027679443 -0.42260742
-0.018371582 -0.027496338 -0.41943359
-0.016372681 -0.027420044 -0.41845703
-0.014358521 -0.027297974 -0.41650391
-0.01235199 -0.027160645 -0.41455078
-0.010360718 -0.027023315 -0.41259766
-0.0084152222 -0.02696228 -0.41137695
-0.0064888 -0.02696228 -0.41137695
-0.0045547485 -0.026901245 -0.41040039
-0.0026302338 -0.026824951 -0.40942383
-0.00071716309 -0.026824951 -0.40942383
0.0011987686 -0.026901245 -0.41040039
0.003118515 -0.026901245 -0.41040039
0.0050468445 -0.02696228 -0.41137695
0.0070037842 -0.027099609 -0.41357422
0.0089569092 -0.027160645 -0.41455078
0.010948181 -0.027297974 -0.41650391
0.012992859 -0.027496338 -0.41943359
0.015022278 -0.027618408 -0.42163086
0.017105103 -0.027816772 -0.42456055
0.019180298 -0.027954102 -0.42651367
0.021331787 -0.028152466 -0.42944336
0.023498535 -0.02835083 -0.43261719
0.025695801 -0.028549194 -0.43554688
0.027862549 -0.028671265 -0.4375
0.03012085 -0.028869629 -0.44067383
0.03237915 -0.029067993 -0.44360352
0.034606934 -0.029205322 -0.44555664
0.036956787 -0.029403687 -0.44873047
-0.055541992 -0.031616211 -0.45068359
-0.053314209 -0.031555176 -0.44970703
-0.050994873 -0.031402588 -0.44750977
-0.048675537 -0.031280518 -0.44555664
-0.046386719 -0.031143188 -0.44360352
-0.0440979 -0.031005859 -0.44165039
-0.041870117 -0.030853271 -0.43969727
-0.039611816 -0.030715942 -0.4375
-0.037414551 -0.030578613 -0.43554688
-0.03527832 -0.030502319 -0.43457031
-0.033111572 -0.03036499 -0.43261719
-0.030944824 -0.030227661 -0.43066406
-0.028793335 -0.030090332 -0.4284668
-0.026657104 -0.029937744 -0.42651367
-0.024612427 -0.029876709 -0.42553711
-0.022506714 -0.02973938 -0.42358398
-0.020431519 -0.029586792 -0.42163086
-0.018371582 -0.029449463 -0.41943359
-0.016372681 -0.029373169 -0.41845703
-0.014358521 -0.02923584 -0.41650391
-0.01235199 -0.029098511 -0.41455078
-0.010383606 -0.029022217 -0.41357422
-0.0084152222 -0.028884888 -0.41137695
-0.0064888 -0.028884888 -0.41137695
-0.0045547485 -0.028808594 -0.41040039
-0.0026302338 -0.028747559 -0.40942383
-0.00071716309 -0.028747559 -0.40942383
0.0011987686 -0.028808594 -0.41040039
0.003118515 -0.028808594 -0.41040039
0.0050468445 -0.028884888 -0.41137695
0.0070037842 -0.029022217 -0.41357422
0.0089569092 -0.029098511 -0.41455078
0.010978699 -0.029312134 -0.41748047
0.012992859 -0.029449463 -0.41943359
0.015022278 -0.029586792 -0.42163086
0.017105103 -0.029800415 -0.42456055
0.019226074 -0.030014038 -0.42749023
0.021331787 -0.030151367 -0.42944336
0.023498535 -0.03036499 -0.43261719
0.025695801 -0.030578613 -0.43554688
0.027862549 -0.030715942 -0.4375
0.03012085 -0.030929565 -0.44067383
0.03237915 -0.031143188 -0.44360352
0.034606934 -0.031280518 -0.44555664
0.036956787 -0.031494141 -0.44873047
-0.057922363 -0.033874512 -0.45263672
-0.055664062 -0.033813477 -0.45166016
-0.053314209 -0.033660889 -0.44970703
-0.050994873 -0.033508301 -0.44750977
-0.048675537 -0.033355713 -0.44555664
-0.046478271 -0.033294678 -0.44458008
-0.0440979 -0.033050537 -0.44165039
-0.041870117 -0.032897949 -0.43969727
-0.039611816 -0.032745361 -0.4375
-0.037414551 -0.032592773 -0.43554688
-0.03527832 -0.032531738 -0.43457031
-0.033111572 -0.03237915 -0.43261719
-0.030944824 -0.032226562 -0.43066406
-0.028793335 -0.032073975 -0.4284668
-0.026657104 -0.031921387 -0.42651367
-0.024612427 -0.031860352 -0.42553711
-0.022506714 -0.031707764 -0.42358398
-0.020431519 -0.031555176 -0.42163086
-0.018371582 -0.031402588 -0.41943359
-0.016372681 -0.031341553 -0.41845703
-0.014358521 -0.031188965 -0.41650391
-0.01235199 -0.031036377 -0.41455078
-0.010383606 -0.030960083 -0.41357422
-0.008430481 -0.030883789 -0.41259766
-0.0064888 -0.030807495 -0.41137695
-0.0045547485 -0.030731201 -0.41040039
-0.0026378632 -0.030731201 -0.41040039
-0.00071716309 -0.030654907 -0.40942383
0.0011987686 -0.030731201 -0.41040039
0.003118515 -0.030731201 -0.41040039
0.0050468445 -0.030807495 -0.41137695
0.0070037842 -0.030960083 -0.41357422
0.0089797974 -0.031112671 -0.41552734
0.010978699 -0.03125 -0.41748047
0.012992859 -0.031402588 -0.41943359
0.015060425 -0.031616211 -0.42260742
0.017105103 -0.031768799 -0.42456055
0.019226074 -0.032012939 -0.42749023
0.021331787 -0.032165527 -0.42944336
0.023498535 -0.03237915 -0.43261719
0.025695801 -0.032592773 -0.43554688
0.027862549 -0.032745361 -0.4375
0.03012085 -0.032989502 -0.44067383
0.03237915 -0.033203125 -0.44360352
0.034606934 -0.033355713 -0.44555664
0.036956787 -0.033569336 -0.44873047
0.039306641 -0.033813477 -0.45166016
-0.057922363 -0.036010742 -0.45263672
-0.055664062 -0.035919189 -0.45166016
-0.053314209 -0.035766602 -0.44970703
-0.050994873 -0.035614014 -0.44750977
-0.048675537 -0.035430908 -0.44555664
-0.046478271 -0.035369873 -0.44458008
-0.041748047 -0.034881592 -0.43847656
-0.039611816 -0.034790039 -0.4375
-0.037414551 -0.034637451 -0.43554688
-0.03527832 -0.034576416 -0.43457031
-0.033111572 -0.034393311 -0.43261719
-0.030944824 -0.034240723 -0.43066406
-0.028793335 -0.034088135 -0.4284668
-0.02671814 -0.033996582 -0.42749023
-0.024612427 -0.033843994 -0.42553711
-0.022506714 -0.033691406 -0.42358398
-0.020431519 -0.033538818 -0.42163086
-0.018417358 -0.033447266 -0.42041016
-0.016372681 -0.033294678 -0.41845703
-0.014358521 -0.033111572 -0.41650391
-0.01235199 -0.032958984 -0.41455078
-0.010383606 -0.032897949 -0.41357422
-0.008430481 -0.032806396 -0.41259766
-0.0064888 -0.032714844 -0.41137695
-0.0045547485 -0.032653809 -0.41040039
-0.0026378632 -0.032653809 -0.41040039
-0.00071716309 -0.032562256 -0.40942383
0.0011987686 -0.032653809 -0.41040039
0.003118515 -0.032653809 -0.41040039
0.0050468445 -0.032714844 -0.41137695
0.0070037842 -0.032897949 -0.41357422
0.0089797974 -0.033050537 -0.41552734
0.010978699 -0.033203125 -0.41748047
0.012992859 -0.033355713 -0.41943359
0.015060425 -0.033599854 -0.42260742
0.017105103 -0.033752441 -0.42456055
0.019226074 -0.033996582 -0.42749023
0.021331787 -0.03414917 -0.42944336
0.023498535 -0.034393311 -0.43261719
0.025695801 -0.034637451 -0.43554688
0.027862549 -0.034790039 -0.4375
0.03012085 -0.03503418 -0.44067383
0.03237915 -0.03527832 -0.44360352
0.034606934 -0.035430908 -0.44555664
0.036956787 -0.035675049 -0.44873047
0.039306641 -0.035919189 -0.45166016
-0.060302734 -0.038299561 -0.45458984
-0.057922363 -0.038116455 -0.45263672
-0.055664062 -0.038024902 -0.45166016
-0.053314209 -0.037872314 -0.44970703
-0.050994873 -0.037689209 -0.44750977
-0.048675537 -0.037536621 -0.44555664
-0.046386719 -0.037353516 -0.44360352
-0.0440979 -0.037200928 -0.44165039
-0.041870117 -0.037017822 -0.43969727
-0.039611816 -0.036834717 -0.4375
-0.037414551 -0.036682129 -0.43554688
-0.03527832 -0.036590576 -0.43457031
-0.033111572 -0.036437988 -0.43261719
-0.030944824 -0.036254883 -0.43066406
-0.028793335 -0.036102295 -0.4284668
-0.02671814 -0.036010742 -0.42749023
-0.024612427 -0.035827637 -0.42553711
-0.022506714 -0.035675049 -0.42358398
-0.020431519 -0.035491943 -0.42163086
-0.018417358 -0.035400391 -0.42041016
-0.016372681 -0.035247803 -0.41845703
-0.014358521 -0.035064697 -0.41650391
-0.01235199 -0.034912109 -0.41455078
-0.010383606 -0.034820557 -0.41357422
-0.008430481 -0.034729004 -0.41259766
-0.0064888 -0.034637451 -0.41137695
-0.0045547485 -0.034576416 -0.41040039
-0.0026378632 -0.034576416 -0.41040039
-0.00071907043 -0.034576416 -0.41040039
0.0011987686 -0.034576416 -0.41040039
0.0031261444 -0.034637451 -0.41137695
0.0050621033 -0.034729004 -0.41259766
0.0070037842 -0.034820557 -0.41357422
0.0089797974 -0.034973145 -0.41552734
0.010978699 -0.03515625 -0.41748047
0.012992859 -0.035339355 -0.41943359
0.015060425 -0.035583496 -0.42260742
0.017105103 -0.035736084 -0.42456055
0.019226074 -0.036010742 -0.42749023
0.021377563 -0.036254883 -0.43066406
0.023498535 -0.036437988 -0.43261719
0.025695801 -0.036682129 -0.43554688
0.027862549 -0.036834717 -0.4375
0.03012085 -0.037109375 -0.44067383
0.03237915 -0.037353516 -0.44360352
0.034606934 -0.037536621 -0.44555664
0.036956787 -0.037780762 -0.44873047
0.039306641 -0.038024902 -0.45166016
0.041687012 -0.038299561 -0.45458984
-0.060302734 -0.040405273 -0.45458984
-0.057922363 -0.040222168 -0.45263672
-0.055664062 -0.040130615 -0.45166016
-0.053314209 -0.039978027 -0.44970703
-0.050994873 -0.039794922 -0.44750977
-0.048675537 -0.039611816 -0.44555664
-0.046386719 -0.039428711 -0.44360352
-0.0440979 -0.039245605 -0.44165039
-0.041870117 -0.0390625 -0.43969727
-0.039611816 -0.038879395 -0.4375
-0.037414551 -0.038726807 -0.43554688
-0.03527832 -0.038635254 -0.43457031
-0.033111572 -0.038452148 -0.43261719
-0.030944824 -0.038269043 -0.43066406
-0.028793335 -0.038085938 -0.4284668
-0.02671814 -0.037994385 -0.42749023
-0.024612427 -0.037811279 -0.42553711
-0.022506714 -0.037658691 -0.42358398
-0.020492554 -0.037567139 -0.42260742
-0.018417358 -0.037384033 -0.42041016
-0.016418457 -0.03729248 -0.41943359
-0.01235199 -0.036834717 -0.41455078
-0.010383606 -0.036743164 -0.41357422
-0.008430481 -0.036651611 -0.41259766
-0.0064888 -0.036560059 -0.41137695
-0.0045547485 -0.036499023 -0.41040039
-0.0026378632 -0.036499023 -0.41040039
-0.00071907043 -0.036499023 -0.41040039
0.0011987686 -0.036499023 -0.41040039
0.0031261444 -0.036560059 -0.41137695
0.0050621033 -0.036651611 -0.41259766
0.0070037842 -0.036743164 -0.41357422
0.0089797974 -0.03692627 -0.41552734
0.010978699 -0.037109375 -0.41748047
0.013023376 -0.037384033 -0.42041016
0.015060425 -0.037567139 -0.42260742
0.017150879 -0.037811279 -0.42553711
0.019226074 -0.037994385 -0.42749023
0.021377563 -0.038269043 -0.43066406
0.023498535 -0.038452148 -0.43261719
0.025695801 -0.038726807 -0.43554688
0.027862549 -0.038879395 -0.4375
0.03012085 -0.039154053 -0.44067383
0.03237915 -0.039428711 -0.44360352
0.034606934 -0.039611816 -0.44555664
0.036956787 -0.039886475 -0.44873047
0.039306641 -0.040130615 -0.45166016
0.041687012 -0.040405273 -0.45458984
-0.062683105 -0.042724609 -0.45654297
-0.060302734 -0.042541504 -0.45458984
-0.057922363 -0.042358398 -0.45263672
-0.055664062 -0.042266846 -0.45166016
-0.053314209 -0.042053223 -0.44970703
-0.050994873 -0.041870117 -0.44750977
-0.048675537 -0.041687012 -0.44555664
-0.046386719 -0.041503906 -0.44360352
-0.0440979 -0.041320801 -0.44165039
-0.041870117 -0.041137695 -0.43969727
-0.039611816 -0.040924072 -0.4375
-0.037414551 -0.040740967 -0.43554688
-0.03527832 -0.040649414 -0.43457031
-0.033111572 -0.040466309 -0.43261719
-0.030944824 -0.040283203 -0.43066406
-0.028793335 -0.040100098 -0.4284668
-0.02671814 -0.040008545 -0.42749023
-0.024612427 -0.039825439 -0.42553711
-0.022506714 -0.039611816 -0.42358398
-0.020492554 -0.039520264 -0.42260742
-0.018417358 -0.039337158 -0.42041016
-0.016372681 -0.039154053 -0.41845703
-0.014389038 -0.0390625 -0.41748047
-0.01235199 -0.038787842 -0.41455078
-0.010383606 -0.038696289 -0.41357422
-0.008430481 -0.038604736 -0.41259766
-0.0064888 -0.038482666 -0.41137695
-0.0045547485 -0.038391113 -0.41040039
-0.0026378632 -0.038391113 -0.41040039
-0.00071907043 -0.038391113 -0.41040039
0.0011987686 -0.038391113 -0.41040039
0.0031261444 -0.038482666 -0.41137695
0.0050621033 -0.038604736 -0.41259766
0.0070037842 -0.038696289 -0.41357422
0.0089797974 -0.038879395 -0.41552734
0.010978699 -0.0390625 -0.41748047
0.013023376 -0.039337158 -0.42041016
0.015060425 -0.039520264 -0.42260742
0.017150879 -0.039825439 -0.42553711
0.019226074 -0.040008545 -0.42749023
0.021377563 -0.040283203 -0.43066406
0.023498535 -0.040466309 -0.43261719
0.025695801 -0.040740967 -0.43554688
0.027862549 -0.040924072 -0.4375
0.03012085 -0.041229248 -0.44067383
0.03237915 -0.041503906 -0.44360352
0.034606934 -0.041687012 -0.44555664
0.036956787 -0.04196167 -0.44873047
0.039306641 -0.042266846 -0.45166016
0.041687012 -0.042541504 -0.45458984
0.0440979 -0.042816162 -0.45776367
-0.062683105 -0.04486084 -0.45654297
-0.060302734 -0.044647217 -0.45458984
-0.057922363 -0.044464111 -0.45263672
-0.055664062 -0.044372559 -0.45166016
-0.053314209 -0.044158936 -0.44970703
-0.050994873 -0.04397583 -0.44750977
-0.048675537 -0.043762207 -0.44555664
-0.046386719 -0.043579102 -0.44360352
-0.0440979 -0.043365479 -0.44165039
-0.041870117 -0.043182373 -0.43969727
-0.039611816 -0.042999268 -0.4375
-0.037414551 -0.042785645 -0.43554688
-0.03527832 -0.042694092 -0.43457031
-0.033111572 -0.042480469 -0.43261719
-0.030944824 -0.042297363 -0.43066406
-0.028793335 -0.04208374 -0.4284668
-0.02671814 -0.041992188 -0.42749023
-0.024612427 -0.041809082 -0.42553711
-0.022506714 -0.041595459 -0.42358398
-0.020492554 -0.041503906 -0.42260742
-0.018417358 -0.041320801 -0.42041016
-0.016372681 -0.041107178 -0.41845703
-0.014389038 -0.041015625 -0.41748047
-0.012374878 -0.040802002 -0.41552734
-0.010383606 -0.040618896 -0.41357422
-0.008430481 -0.040527344 -0.41259766
-0.0064888 -0.040435791 -0.41137695
-0.0045547485 -0.040313721 -0.41040039
-0.0026378632 -0.040313721 -0.41040039
-0.00071907043 -0.040313721 -0.41040039
0.0011987686 -0.040313721 -0.41040039
0.0031261444 -0.040435791 -0.41137695
0.0050621033 -0.040527344 -0.41259766
0.0070228577 -0.040710449 -0.41455078
0.0089797974 -0.040802002 -0.41552734
0.010978699 -0.041015625 -0.41748047
0.013023376 -0.041320801 -0.42041016
0.015060425 -0.041503906 -0.42260742
0.017150879 -0.041809082 -0.42553711
0.019226074 -0.041992188 -0.42749023
0.021377563 -0.042297363 -0.43066406
0.02355957 -0.042602539 -0.43359375
0.025695801 -0.042785645 -0.43554688
0.027862549 -0.042999268 -0.4375
0.03012085 -0.043273926 -0.44067383
0.03237915 -0.043579102 -0.44360352
0.034606934 -0.043762207 -0.44555664
0.036956787 -0.044067383 -0.44873047
0.039306641 -0.044372559 -0.45166016
0.041687012 -0.044647217 -0.45458984
0.0440979 -0.044952393 -0.45776367
-0.064941406 -0.047088623 -0.45776367
-0.062683105 -0.04699707 -0.45654297
-0.060302734 -0.046783447 -0.45458984
-0.058044434 -0.046691895 -0.45361328
-0.055664062 -0.046478271 -0.45166016
-0.053314209 -0.046264648 -0.44970703
-0.050994873 -0.046051025 -0.44750977
-0.048675537 -0.04586792 -0.44555664
-0.046386719 -0.045654297 -0.44360352
-0.0440979 -0.045440674 -0.44165039
-0.041870117 -0.045227051 -0.43969727
-0.039611816 -0.045043945 -0.4375
-0.037414551 -0.044830322 -0.43554688
-0.03527832 -0.044708252 -0.43457031
-0.033111572 -0.044525146 -0.43261719
-0.030944824 -0.044311523 -0.43066406
-0.028793335 -0.0440979 -0.4284668
-0.02671814 -0.044006348 -0.42749023
-0.024612427 -0.043792725 -0.42553711
-0.022506714 -0.043579102 -0.42358398
-0.020492554 -0.043487549 -0.42260742
-0.018417358 -0.043273926 -0.42041016
-0.016372681 -0.043060303 -0.41845703
-0.014389038 -0.04296875 -0.41748047
-0.012374878 -0.042755127 -0.41552734
-0.010383606 -0.042541504 -0.41357422
-0.008430481 -0.042449951 -0.41259766
-0.0064888 -0.042358398 -0.41137695
-0.0045547485 -0.042236328 -0.41040039
-0.0026378632 -0.042236328 -0.41040039
-0.00071907043 -0.042236328 -0.41040039
0.0011987686 -0.042236328 -0.41040039
0.0031261444 -0.042358398 -0.41137695
0.0050621033 -0.042449951 -0.41259766
0.0070228577 -0.042663574 -0.41455078
0.0089797974 -0.042755127 -0.41552734
0.011001587 -0.043060303 -0.41845703
0.013023376 -0.043273926 -0.42041016
0.015060425 -0.043487549 -0.42260742
0.017150879 -0.043792725 -0.42553711
0.019226074 -0.044006348 -0.42749023
0.021377563 -0.044311523 -0.43066406
0.02355957 -0.044616699 -0.43359375
0.025695801 -0.044830322 -0.43554688
0.027862549 -0.045043945 -0.4375
0.03012085 -0.045349121 -0.44067383
0.03237915 -0.045654297 -0.44360352
0.034606934 -0.04586792 -0.44555664
0.036956787 -0.046173096 -0.44873047
0.039306641 -0.046478271 -0.45166016
0.041687012 -0.046783447 -0.45458984
0.0440979 -0.047088623 -0.45776367
-0.064941406 -0.049224854 -0.45776367
-0.062683105 -0.049133301 -0.45654297
-0.060302734 -0.048919678 -0.45458984
-0.058044434 -0.048797607 -0.45361328
-0.055664062 -0.048583984 -0.45166016
-0.053314209 -0.048370361 -0.44970703
-0.050994873 -0.048156738 -0.44750977
-0.048675537 -0.047943115 -0.44555664
-0.046386719 -0.047729492 -0.44360352
-0.0440979 -0.047515869 -0.44165039
-0.041870117 -0.047302246 -0.43969727
-0.039611816 -0.047088623 -0.4375
-0.037414551 -0.046875 -0.43554688
-0.03527832 -0.04675293 -0.43457031
-0.033111572 -0.046539307 -0.43261719
-0.030944824 -0.046325684 -0.43066406
-0.028793335 -0.046112061 -0.4284668
-0.02671814 -0.04598999 -0.42749023
-0.024612427 -0.045776367 -0.42553711
-0.022506714 -0.045562744 -0.42358398
-0.020431519 -0.045349121 -0.42163086
-0.018417358 -0.045227051 -0.42041016
-0.016372681 -0.045013428 -0.41845703
-0.014389038 -0.044921875 -0.41748047
-0.012374878 -0.044708252 -0.41552734
-0.010383606 -0.044494629 -0.41357422
-0.008430481 -0.044372559 -0.41259766
-0.0064888 -0.044281006 -0.41137695
-0.0045547485 -0.044158936 -0.41040039
-0.0026378632 -0.044158936 -0.41040039
-0.00071907043 -0.044158936 -0.41040039
0.0011987686 -0.044158936 -0.41040039
0.0031261444 -0.044281006 -0.41137695
0.0050621033 -0.044372559 -0.41259766
0.0070228577 -0.044586182 -0.41455078
0.0090026855 -0.044799805 -0.41650391
0.011001587 -0.045013428 -0.41845703
0.013023376 -0.045227051 -0.42041016
0.015060425 -0.045471191 -0.42260742
0.017150879 -0.045776367 -0.42553711
0.019226074 -0.04598999 -0.42749023
0.021377563 -0.046325684 -0.43066406
0.02355957 -0.046630859 -0.43359375
0.025695801 -0.046875 -0.43554688
0.027862549 -0.047088623 -0.4375
0.03012085 -0.047393799 -0.44067383
0.03237915 -0.047729492 -0.44360352
0.034606934 -0.047943115 -0.44555664
0.036956787 -0.048278809 -0.44873047
0.039398193 -0.048706055 -0.45263672
0.041778564 -0.04901123 -0.45556641
0.044219971 -0.049346924 -0.45874023
0.046569824 -0.049560547 -0.46069336
-0.067260742 -0.051483154 -0.45874023
-0.064941406 -0.051361084 -0.45776367
-0.062683105 -0.051269531 -0.45654297
-0.060302734 -0.051025391 -0.45458984
-0.058044434 -0.050933838 -0.45361328
-0.055664062 -0.050689697 -0.45166016
-0.053314209 -0.050476074 -0.44970703
-0.050994873 -0.050262451 -0.44750977
-0.048553467 -0.04989624 -0.44458008
-0.046386719 -0.049804688 -0.44360352
-0.0440979 -0.049560547 -0.44165039
-0.041870117 -0.049346924 -0.43969727
-0.039611816 -0.049133301 -0.4375
-0.037414551 -0.04888916 -0.43554688
-0.03527832 -0.048797607 -0.43457031
-0.033111572 -0.048553467 -0.43261719
-0.030944824 -0.048339844 -0.43066406
-0.028793335 -0.048095703 -0.4284668
-0.02671814 -0.04800415 -0.42749023
-0.024612427 -0.04776001 -0.42553711
-0.022506714 -0.047546387 -0.42358398
-0.020431519 -0.047332764 -0.42163086
-0.018417358 -0.047210693 -0.42041016
-0.016372681 -0.046966553 -0.41845703
-0.014389038 -0.046875 -0.41748047
-0.010383606 -0.046417236 -0.41357422
-0.008430481 -0.046295166 -0.41259766
-0.0064888 -0.046203613 -0.41137695
-0.0045547485 -0.046081543 -0.41040039
-0.0026378632 -0.046081543 -0.41040039
-0.00071907043 -0.046081543 -0.41040039
0.0011987686 -0.046081543 -0.41040039
0.0031261444 -0.046203613 -0.41137695
0.0050621033 -0.046295166 -0.41259766
0.0070228577 -0.046539307 -0.41455078
0.0090026855 -0.04675293 -0.41650391
0.011001587 -0.046966553 -0.41845703
0.013023376 -0.047210693 -0.42041016
0.015060425 -0.047424316 -0.42260742
0.017150879 -0.04776001 -0.42553711
0.019226074 -0.04800415 -0.42749023
0.021377563 -0.048339844 -0.43066406
0.02355957 -0.048675537 -0.43359375
0.025695801 -0.04888916 -0.43554688
0.027862549 -0.049133301 -0.4375
0.03012085 -0.049468994 -0.44067383
0.032318115 -0.049682617 -0.44262695
0.034606934 -0.050018311 -0.44555664
0.036956787 -0.050354004 -0.44873047
0.039398193 -0.050811768 -0.45263672
0.041778564 -0.051147461 -0.45556641
0.044219971 -0.051483154 -0.45874023
0.046569824 -0.051727295 -0.46069336
-0.067260742 -0.053619385 -0.45874023
-0.064941406 -0.053527832 -0.45776367
-0.062683105 -0.053405762 -0.45654297
-0.060302734 -0.053161621 -0.45458984
-0.057922363 -0.05291748 -0.45263672
-0.055664062 -0.052825928 -0.45166016
-0.053314209 -0.052581787 -0.44970703
-0.050994873 -0.052337646 -0.44750977
-0.048553467 -0.052001953 -0.44458008
-0.046386719 -0.051879883 -0.44360352
-0.0440979 -0.051635742 -0.44165039
-0.041870117 -0.051391602 -0.43969727
-0.039611816 -0.051177979 -0.4375
-0.037414551 -0.050933838 -0.43554688
-0.03527832 -0.050811768 -0.43457031
-0.033111572 -0.050567627 -0.43261719
-0.030944824 -0.050354004 -0.43066406
-0.02885437 -0.050231934 -0.42944336
-0.02671814 -0.049987793 -0.42749023
-0.024612427 -0.049743652 -0.42553711
-0.022506714 -0.049530029 -0.42358398
-0.020431519 -0.049285889 -0.42163086
-0.018417358 -0.049163818 -0.42041016
-0.016372681 -0.048950195 -0.41845703
-0.014389038 -0.048828125 -0.41748047
-0.012374878 -0.048583984 -0.41552734
-0.010383606 -0.048339844 -0.41357422
-0.008430481 -0.048217773 -0.41259766
-0.0064888 -0.048126221 -0.41137695
-0.0045547485 -0.04800415 -0.41040039
-0.0026378632 -0.04800415 -0.41040039
-0.00071907043 -0.04800415 -0.41040039
0.0011987686 -0.04800415 -0.41040039
0.0031261444 -0.048126221 -0.41137695
0.0050621033 -0.048217773 -0.41259766
0.0070228577 -0.048461914 -0.41455078
0.0090026855 -0.048706055 -0.41650391
0.011001587 -0.048950195 -0.41845703
0.013023376 -0.049163818 -0.42041016
0.015060425 -0.049407959 -0.42260742
0.017150879 -0.049743652 -0.42553711
0.019226074 -0.049987793 -0.42749023
0.021377563 -0.050354004 -0.43066406
0.023498535 -0.050567627 -0.43261719
0.025695801 -0.050933838 -0.43554688
0.027862549 -0.051177979 -0.4375
0.03012085 -0.051513672 -0.44067383
0.032318115 -0.051757812 -0.44262695
0.034606934 -0.052093506 -0.44555664
0.036956787 -0.052459717 -0.44873047
0.039398193 -0.05291748 -0.45263672
0.041778564 -0.053283691 -0.45556641
0.044219971 -0.053619385 -0.45874023
0.046661377 -0.053985596 -0.46166992
-0.067260742 -0.055786133 -0.45874023
-0.064941406 -0.055664062 -0.45776367
-0.062561035 -0.055419922 -0.45556641
-0.060302734 -0.055297852 -0.45458984
-0.057922363 -0.055053711 -0.45263672
-0.055664062 -0.054931641 -0.45166016
-0.053314209 -0.0546875 -0.44970703
-0.050994873 -0.054443359 -0.44750977
-0.048675537 -0.054199219 -0.44555664
-0.046386719 -0.053955078 -0.44360352
-0.0440979 -0.053710938 -0.44165039
-0.041870117 -0.053466797 -0.43969727
-0.039611816 -0.053222656 -0.4375
-0.037414551 -0.052978516 -0.43554688
-0.03527832 -0.052856445 -0.43457031
-0.033111572 -0.052612305 -0.43261719
-0.030944824 -0.052368164 -0.43066406
-0.02885437 -0.052246094 -0.42944336
-0.02671814 -0.052001953 -0.42749023
-0.024612427 -0.051757812 -0.42553711
-0.022506714 -0.051513672 -0.42358398
-0.020431519 -0.051269531 -0.42163086
-0.018371582 -0.051025391 -0.41943359
-0.016372681 -0.05090332 -0.41845703
-0.014358521 -0.05065918 -0.41650391
-0.012374878 -0.050537109 -0.41552734
-0.010383606 -0.050292969 -0.41357422
-0.008430481 -0.050170898 -0.41259766
-0.0064888 -0.050048828 -0.41137695
-0.0045547485 -0.049926758 -0.41040039
-0.0026378632 -0.049926758 -0.41040039
-0.00071907043 -0.049926758 -0.41040039
0.0011987686 -0.049926758 -0.41040039
0.0031261444 -0.050048828 -0.41137695
0.0050621033 -0.050170898 -0.41259766
0.0070228577 -0.050415039 -0.41455078
0.0090026855 -0.05065918 -0.41650391
0.011001587 -0.05090332 -0.41845703
0.013023376 -0.051147461 -0.42041016
0.015060425 -0.051391602 -0.42260742
0.017150879 -0.051757812 -0.42553711
0.019271851 -0.052124023 -0.4284668
0.021377563 -0.052368164 -0.43066406
0.023498535 -0.052612305 -0.43261719
0.025695801 -0.052978516 -0.43554688
0.027862549 -0.053222656 -0.4375
0.03012085 -0.053588867 -0.44067383
0.032318115 -0.053833008 -0.44262695
0.034545898 -0.054077148 -0.44458008
0.036956787 -0.05456543 -0.44873047
0.039398193 -0.055053711 -0.45263672
0.041870117 -0.055541992 -0.45654297
0.044219971 -0.055786133 -0.45874023
0.046661377 -0.056152344 -0.46166992
-0.069519043 -0.058044434 -0.4597168
-0.067260742 -0.057922363 -0.45874023
-0.064941406 -0.057800293 -0.45776367
-0.062561035 -0.057525635 -0.45556641
-0.060302734 -0.057403564 -0.45458984
-0.057922363 -0.057159424 -0.45263672
-0.055541992 -0.056915283 -0.45068359
-0.053192139 -0.056640625 -0.44873047
-0.050872803 -0.056396484 -0.4465332
-0.048675537 -0.056274414 -0.44555664
-0.046386719 -0.056030273 -0.44360352
-0.0440979 -0.055755615 -0.44165039
-0.041870117 -0.055511475 -0.43969727
-0.039611816 -0.055267334 -0.4375
-0.037414551 -0.054992676 -0.43554688
-0.03527832 -0.054870605 -0.43457031
-0.033111572 -0.054626465 -0.43261719
-0.030944824 -0.054382324 -0.43066406
-0.02885437 -0.054229736 -0.42944336
-0.02671814 -0.053985596 -0.42749023
-0.024612427 -0.053741455 -0.42553711
-0.022506714 -0.053497314 -0.42358398
-0.020431519 -0.053222656 -0.42163086
-0.018371582 -0.052978516 -0.41943359
-0.016372681 -0.052856445 -0.41845703
-0.014358521 -0.052581787 -0.41650391
-0.012374878 -0.052459717 -0.41552734
-0.010383606 -0.052215576 -0.41357422
-0.008430481 -0.052093506 -0.41259766
-0.0064888 -0.051971436 -0.41137695
-0.0045547485 -0.051849365 -0.41040039
-0.0026378632 -0.051849365 -0.41040039
-0.00071907043 -0.051849365 -0.41040039
0.0011987686 -0.051849365 -0.41040039
0.0031261444 -0.051971436 -0.41137695
0.0050621033 -0.052093506 -0.41259766
0.0070228577 -0.052337646 -0.41455078
0.0090026855 -0.052581787 -0.41650391
0.011001587 -0.052856445 -0.41845703
0.013023376 -0.053100586 -0.42041016
0.015060425 -0.053344727 -0.42260742
0.017150879 -0.053741455 -0.42553711
0.019226074 -0.053985596 -0.42749023
0.021377563 -0.054382324 -0.43066406
0.023498535 -0.054626465 -0.43261719
0.025695801 -0.054992676 -0.43554688
0.027862549 -0.055267334 -0.4375
0.030044556 -0.055511475 -0.43969727
0.032318115 -0.055877686 -0.44262695
0.034454346 -0.056030273 -0.44360352
0.039581299 -0.057403564 -0.45458984
0.041870117 -0.057678223 -0.45654297
0.044219971 -0.057922363 -0.45874023
0.046661377 -0.058288574 -0.46166992
0.049133301 -0.058685303 -0.46459961
-0.069519043 -0.060211182 -0.4597168
-0.067260742 -0.060058594 -0.45874023
-0.064941406 -0.059936523 -0.45776367
-0.062561035 -0.059661865 -0.45556641
-0.060302734 -0.059539795 -0.45458984
-0.057922363 -0.059265137 -0.45263672
-0.055541992 -0.059020996 -0.45068359
-0.053192139 -0.058746338 -0.44873047
-0.050872803 -0.058502197 -0.4465332
-0.048675537 -0.058349609 -0.44555664
-0.046386719 -0.058105469 -0.44360352
-0.0440979 -0.057830811 -0.44165039
-0.041870117 -0.057556152 -0.43969727
-0.039611816 -0.057312012 -0.4375
-0.037414551 -0.057037354 -0.43554688
-0.03527832 -0.056915283 -0.43457031
-0.033111572 -0.056640625 -0.43261719
-0.030944824 -0.056396484 -0.43066406
-0.02885437 -0.056243896 -0.42944336
-0.02671814 -0.055999756 -0.42749023
-0.024612427 -0.055725098 -0.42553711
-0.022506714 -0.055450439 -0.42358398
-0.020431519 -0.055206299 -0.42163086
-0.018371582 -0.054931641 -0.41943359
-0.016372681 -0.05480957 -0.41845703
-0.014358521 -0.054534912 -0.41650391
-0.01235199 -0.054290771 -0.41455078
-0.010383606 -0.054138184 -0.41357422
-0.008430481 -0.054016113 -0.41259766
-0.0064888 -0.053894043 -0.41137695
-0.0045547485 -0.053741455 -0.41040039
-0.0026378632 -0.053741455 -0.41040039
-0.00071907043 -0.053741455 -0.41040039
0.0011987686 -0.053741455 -0.41040039
0.0031261444 -0.053894043 -0.41137695
0.0050621033 -0.054016113 -0.41259766
0.0070228577 -0.054290771 -0.41455078
0.0090026855 -0.054534912 -0.41650391
0.011001587 -0.05480957 -0.41845703
0.013023376 -0.055084229 -0.42041016
0.015060425 -0.055328369 -0.42260742
0.017150879 -0.055725098 -0.42553711
0.019226074 -0.055999756 -0.42749023
0.021377563 -0.056396484 -0.43066406
0.023498535 -0.056640625 -0.43261719
0.025695801 -0.057037354 -0.43554688
0.027862549 -0.057312012 -0.4375
0.030044556 -0.057556152 -0.43969727
0.032318115 -0.057952881 -0.44262695
0.034545898 -0.058227539 -0.44458008
0.039581299 -0.059539795 -0.45458984
0.041870117 -0.059814453 -0.45654297
0.044311523 -0.060211182 -0.4597168
0.046661377 -0.060455322 -0.46166992
0.049133301 -0.060852051 -0.46459961
-0.069702148 -0.062469482 -0.46069336
-0.067260742 -0.062194824 -0.45874023
-0.064941406 -0.062072754 -0.45776367
-0.062561035 -0.061798096 -0.45556641
-0.060302734 -0.061676025 -0.45458984
-0.057922363 -0.061401367 -0.45263672
-0.055541992 -0.061126709 -0.45068359
-0.053192139 -0.060852051 -0.44873047
-0.050872803 -0.060577393 -0.4465332
-0.048675537 -0.060424805 -0.44555664
-0.046386719 -0.060180664 -0.44360352
-0.0440979 -0.059906006 -0.44165039
-0.041870117 -0.059631348 -0.43969727
-0.039611816 -0.059356689 -0.4375
-0.037414551 -0.059082031 -0.43554688
-0.03527832 -0.058929443 -0.43457031
-0.033111572 -0.058654785 -0.43261719
-0.030944824 -0.058410645 -0.43066406
-0.02885437 -0.058258057 -0.42944336
-0.02671814 -0.057983398 -0.42749023
-0.024612427 -0.05770874 -0.42553711
-0.022506714 -0.057434082 -0.42358398
-0.020431519 -0.057159424 -0.42163086
-0.018417358 -0.057037354 -0.42041016
-0.016372681 -0.056762695 -0.41845703
-0.014358521 -0.056488037 -0.41650391
-0.01235199 -0.056213379 -0.41455078
-0.010383606 -0.056091309 -0.41357422
-0.008430481 -0.055938721 -0.41259766
-0.0064888 -0.05581665 -0.41137695
-0.0045547485 -0.055664062 -0.41040039
-0.0026378632 -0.055664062 -0.41040039
-0.00071907043 -0.055664062 -0.41040039
0.0012016296 -0.05581665 -0.41137695
0.0031261444 -0.05581665 -0.41137695
0.0050621033 -0.055938721 -0.41259766
0.0070228577 -0.056213379 -0.41455078
0.0090026855 -0.056488037 -0.41650391
0.011001587 -0.056762695 -0.41845703
0.013023376 -0.057037354 -0.42041016
0.015060425 -0.057312012 -0.42260742
0.017150879 -0.05770874 -0.42553711
0.019226074 -0.057983398 -0.42749023
0.021377563 -0.058410645 -0.43066406
0.02355957 -0.058807373 -0.43359375
0.025695801 -0.059082031 -0.43554688
0.027862549 -0.059356689 -0.4375
0.03012085 -0.059753418 -0.44067383
0.032318115 -0.060028076 -0.44262695
0.034606934 -0.060424805 -0.44555664
0.037017822 -0.060974121 -0.44970703
0.039489746 -0.061523438 -0.45361328
0.041870117 -0.061950684 -0.45654297
0.044219971 -0.062194824 -0.45874023
0.046661377 -0.06262207 -0.46166992
0.049133301 -0.062988281 -0.46459961
-0.069702148 -0.06463623 -0.46069336
-0.067382812 -0.064453125 -0.4597168
-0.064941406 -0.064208984 -0.45776367
-0.062683105 -0.064025879 -0.45654297
-0.060302734 -0.063781738 -0.45458984
-0.057922363 -0.063476562 -0.45263672
-0.055541992 -0.063232422 -0.45068359
-0.053192139 -0.062927246 -0.44873047
-0.050872803 -0.06262207 -0.4465332
-0.048675537 -0.0625 -0.44555664
-0.046386719 -0.062225342 -0.44360352
-0.0440979 -0.061950684 -0.44165039
-0.041870117 -0.061676025 -0.43969727
-0.039611816 -0.061401367 -0.4375
-0.037414551 -0.061126709 -0.43554688
-0.03527832 -0.060974121 -0.43457031
-0.033111572 -0.060699463 -0.43261719
-0.030944824 -0.060394287 -0.43066406
-0.028793335 -0.060119629 -0.4284668
-0.02671814 -0.059997559 -0.42749023
-0.024612427 -0.059692383 -0.42553711
-0.022506714 -0.059417725 -0.42358398
-0.020492554 -0.059295654 -0.42260742
-0.018417358 -0.058990479 -0.42041016
-0.016418457 -0.058868408 -0.41943359
-0.01235199 -0.058166504 -0.41455078
-0.010383606 -0.058013916 -0.41357422
-0.008430481 -0.057861328 -0.41259766
-0.0064888 -0.057739258 -0.41137695
-0.0045547485 -0.05758667 -0.41040039
-0.0026378632 -0.05758667 -0.41040039
-0.00071907043 -0.05758667 -0.41040039
0.0012016296 -0.057739258 -0.41137695
0.0031261444 -0.057739258 -0.41137695
0.0050621033 -0.057861328 -0.41259766
0.0070228577 -0.058166504 -0.41455078
0.0090026855 -0.058441162 -0.41650391
0.011001587 -0.05871582 -0.41845703
0.013023376 -0.058990479 -0.42041016
0.015060425 -0.059295654 -0.42260742
0.017150879 -0.059692383 -0.42553711
0.019226074 -0.059997559 -0.42749023
0.021377563 -0.060394287 -0.43066406
0.02355957 -0.060821533 -0.43359375
0.025695801 -0.061126709 -0.43554688
0.027923584 -0.061523438 -0.43847656
0.03012085 -0.061828613 -0.44067383
0.03237915 -0.062225342 -0.44360352
0.034606934 -0.0625 -0.44555664
0.037017822 -0.063049316 -0.44970703
0.039398193 -0.063476562 -0.45263672
0.041778564 -0.063903809 -0.45556641
0.044219971 -0.064331055 -0.45874023
0.046661377 -0.064758301 -0.46166992
0.049133301 -0.065185547 -0.46459961
0.051513672 -0.065490723 -0.46679688
-0.069702148 -0.066772461 -0.46069336
-0.067382812 -0.066650391 -0.4597168
-0.064941406 -0.066345215 -0.45776367
-0.062683105 -0.066162109 -0.45654297
-0.060302734 -0.065917969 -0.45458984
-0.057922363 -0.065612793 -0.45263672
-0.055541992 -0.065307617 -0.45068359
-0.053192139 -0.065002441 -0.44873047
-0.050994873 -0.064880371 -0.44750977
-0.048675537 -0.064575195 -0.44555664
-0.046386719 -0.06427002 -0.44360352
-0.0440979 -0.064025879 -0.44165039
-0.041870117 -0.063720703 -0.43969727
-0.039611816 -0.063415527 -0.4375
-0.037414551 -0.063110352 -0.43554688
-0.03527832 -0.062988281 -0.43457031
-0.033111572 -0.062683105 -0.43261719
-0.030944824 -0.062408447 -0.43066406
-0.02885437 -0.062286377 -0.42944336
-0.02671814 -0.061981201 -0.42749023
-0.024612427 -0.061706543 -0.42553711
-0.022506714 -0.061401367 -0.42358398
-0.020492554 -0.061248779 -0.42260742
-0.018417358 -0.060974121 -0.42041016
-0.016372681 -0.060668945 -0.41845703
-0.014358521 -0.060394287 -0.41650391
-0.01235199 -0.060089111 -0.41455078
-0.010383606 -0.059936523 -0.41357422
-0.008430481 -0.059814453 -0.41259766
-0.0064888 -0.059661865 -0.41137695
-0.0045661926 -0.059661865 -0.41137695
-0.0026378632 -0.059509277 -0.41040039
-0.00071907043 -0.059509277 -0.41040039
0.0012016296 -0.059661865 -0.41137695
0.0031261444 -0.059661865 -0.41137695
0.0050735474 -0.059936523 -0.41357422
0.0070228577 -0.060089111 -0.41455078
0.0090026855 -0.060394287 -0.41650391
0.011001587 -0.060668945 -0.41845703
0.013023376 -0.060974121 -0.42041016
0.015060425 -0.061248779 -0.42260742
0.017150879 -0.061706543 -0.42553711
0.019226074 -0.061981201 -0.42749023
0.021377563 -0.062408447 -0.43066406
0.02355957 -0.062866211 -0.43359375
0.025695801 -0.063110352 -0.43554688
0.027923584 -0.063598633 -0.43847656
0.03012085 -0.063842773 -0.44067383
0.03237915 -0.06427002 -0.44360352
0.034698486 -0.064758301 -0.4465332
0.037017822 -0.065185547 -0.44970703
0.039398193 -0.065612793 -0.45263672
0.041778564 -0.066040039 -0.45556641
0.044219971 -0.066467285 -0.45874023
0.046569824 -0.066772461 -0.46069336
0.049041748 -0.067199707 -0.46362305
0.051513672 -0.067626953 -0.46679688
-0.069702148 -0.068908691 -0.46069336
-0.067382812 -0.068786621 -0.4597168
-0.065124512 -0.068603516 -0.45874023
-0.062683105 -0.06829834 -0.45654297
-0.060302734 -0.068054199 -0.45458984
-0.057922363 -0.067749023 -0.45263672
-0.055541992 -0.067443848 -0.45068359
-0.053192139 -0.067138672 -0.44873047
-0.050994873 -0.066955566 -0.44750977
-0.048675537 -0.066650391 -0.44555664
-0.046386719 -0.066345215 -0.44360352
-0.044219971 -0.066223145 -0.44262695
-0.039611816 -0.065490723 -0.4375
-0.037414551 -0.065185547 -0.43554688
-0.03527832 -0.065002441 -0.43457031
-0.033111572 -0.064697266 -0.43261719
-0.030944824 -0.06439209 -0.43066406
-0.02885437 -0.06427002 -0.42944336
-0.02671814 -0.063964844 -0.42749023
-0.024612427 -0.063659668 -0.42553711
-0.022567749 -0.063537598 -0.42456055
-0.020492554 -0.063232422 -0.42260742
-0.018417358 -0.062927246 -0.42041016
-0.016372681 -0.06262207 -0.41845703
-0.014358521 -0.062316895 -0.41650391
-0.012374878 -0.062194824 -0.41552734
-0.010383606 -0.061889648 -0.41357422
-0.008430481 -0.061737061 -0.41259766
-0.0064888 -0.061584473 -0.41137695
-0.0045661926 -0.061584473 -0.41137695
-0.0026378632 -0.061431885 -0.41040039
-0.00071907043 -0.061431885 -0.41040039
0.0012016296 -0.061584473 -0.41137695
0.0031261444 -0.061584473 -0.41137695
0.0050735474 -0.061889648 -0.41357422
0.0070228577 -0.062042236 -0.41455078
0.0090026855 -0.062316895 -0.41650391
0.011001587 -0.06262207 -0.41845703
0.013023376 -0.062927246 -0.42041016
0.015090942 -0.063354492 -0.42358398
0.017150879 -0.063659668 -0.42553711
0.019226074 -0.063964844 -0.42749023
0.021377563 -0.06439209 -0.43066406
0.02355957 -0.064880371 -0.43359375
0.025756836 -0.065307617 -0.43652344
0.027923584 -0.065612793 -0.43847656
0.03012085 -0.065917969 -0.44067383
0.03237915 -0.066345215 -0.44360352
0.034698486 -0.066833496 -0.4465332
0.037017822 -0.067260742 -0.44970703
0.039398193 -0.067749023 -0.45263672
0.041687012 -0.068054199 -0.45458984
0.0440979 -0.068481445 -0.45776367
0.046569824 -0.068908691 -0.46069336
0.049041748 -0.069396973 -0.46362305
0.051422119 -0.069702148 -0.46557617
-0.069824219 -0.071228027 -0.46166992
-0.067382812 -0.070922852 -0.4597168
-0.065124512 -0.070800781 -0.45874023
-0.062683105 -0.07043457 -0.45654297
-0.060302734 -0.070129395 -0.45458984
-0.057922363 -0.069824219 -0.45263672
-0.055664062 -0.069702148 -0.45166016
-0.053314209 -0.069396973 -0.44970703
-0.050994873 -0.069091797 -0.44750977
-0.048675537 -0.068786621 -0.44555664
-0.046386719 -0.06842041 -0.44360352
-0.044219971 -0.06829834 -0.44262695
-0.041870117 -0.067810059 -0.43969727
-0.039611816 -0.067504883 -0.4375
-0.037414551 -0.067199707 -0.43554688
-0.03527832 -0.067077637 -0.43457031
-0.033111572 -0.066772461 -0.43261719
-0.030944824 -0.06640625 -0.43066406
-0.02885437 -0.06628418 -0.42944336
-0.02671814 -0.065979004 -0.42749023
-0.024612427 -0.065673828 -0.42553711
-0.022506714 -0.065368652 -0.42358398
-0.020492554 -0.065185547 -0.42260742
-0.018417358 -0.064880371 -0.42041016
-0.016372681 -0.064575195 -0.41845703
-0.014358521 -0.06427002 -0.41650391
-0.012374878 -0.064086914 -0.41552734
-0.010383606 -0.063781738 -0.41357422
-0.008430481 -0.063659668 -0.41259766
-0.0064888 -0.063476562 -0.41137695
-0.0045661926 -0.063476562 -0.41137695
-0.0026378632 -0.063354492 -0.41040039
-0.00071907043 -0.063354492 -0.41040039
0.0012016296 -0.063476562 -0.41137695
0.0031261444 -0.063476562 -0.41137695
0.0050735474 -0.063781738 -0.41357422
0.0070228577 -0.063964844 -0.41455078
0.0090026855 -0.06427002 -0.41650391
0.011001587 -0.064575195 -0.41845703
0.013023376 -0.064880371 -0.42041016
0.015090942 -0.065368652 -0.42358398
0.017150879 -0.065673828 -0.42553711
0.019226074 -0.065979004 -0.42749023
0.021377563 -0.06640625 -0.43066406
0.023605347 -0.067077637 -0.43457031
0.025756836 -0.067382812 -0.43652344
0.027923584 -0.067687988 -0.43847656
0.030181885 -0.068115234 -0.44165039
0.032470703 -0.068603516 -0.44458008
0.034698486 -0.068908691 -0.4465332
0.037017822 -0.069396973 -0.44970703
0.039398193 -0.069824219 -0.45263672
0.041687012 -0.070129395 -0.45458984
0.0440979 -0.070617676 -0.45776367
0.046447754 -0.070922852 -0.4597168
0.048919678 -0.071411133 -0.46264648
0.051422119 -0.071838379 -0.46557617
-0.069824219 -0.073364258 -0.46166992
-0.067565918 -0.073242188 -0.46069336
-0.065124512 -0.072937012 -0.45874023
-0.062683105 -0.072570801 -0.45654297
-0.060424805 -0.07244873 -0.45556641
-0.058044434 -0.072143555 -0.45361328
-0.055664062 -0.071777344 -0.45166016
-0.053314209 -0.071472168 -0.44970703
-0.050994873 -0.071166992 -0.44750977
-0.048675537 -0.070861816 -0.44555664
-0.046386719 -0.070495605 -0.44360352
-0.044219971 -0.070373535 -0.44262695
-0.041870117 -0.069885254 -0.43969727
-0.039611816 -0.069580078 -0.4375
-0.037475586 -0.069396973 -0.43652344
-0.03527832 -0.069091797 -0.43457031
-0.033111572 -0.068786621 -0.43261719
-0.031005859 -0.068603516 -0.43164062
-0.02885437 -0.06829834 -0.42944336
-0.02671814 -0.067993164 -0.42749023
-0.024612427 -0.067626953 -0.42553711
-0.022506714 -0.067321777 -0.42358398
-0.020492554 -0.067138672 -0.42260742
-0.018417358 -0.066833496 -0.42041016
-0.016372681 -0.06652832 -0.41845703
-0.014358521 -0.066223145 -0.41650391
-0.012374878 -0.066040039 -0.41552734
-0.010383606 -0.065734863 -0.41357422
-0.008430481 -0.065551758 -0.41259766
-0.0064888 -0.065429688 -0.41137695
-0.0045661926 -0.065429688 -0.41137695
-0.0026378632 -0.065246582 -0.41040039
-0.00071907043 -0.065246582 -0.41040039
0.0012016296 -0.065429688 -0.41137695
0.0031261444 -0.065429688 -0.41137695
0.0050735474 -0.065734863 -0.41357422
0.0070228577 -0.065917969 -0.41455078
0.0090026855 -0.066223145 -0.41650391
0.011001587 -0.06652832 -0.41845703
0.013053894 -0.067016602 -0.42163086
0.015090942 -0.067321777 -0.42358398
0.017150879 -0.067626953 -0.42553711
0.019271851 -0.068115234 -0.4284668
0.02142334 -0.068603516 -0.43164062
