# .PCD v0.7 - Point Cloud Data file format
VERSION 0.7
FIELDS x y z
SIZE 4 4 4
TYPE F F F
COUNT 1 1 1
WIDTH 1520
HEIGHT 1
VIEWPOINT 0 0 0 1 0 0 0
POINTS 1520
DATA ascii
2.7265625 1.7109375 -3.2128906
2.7460938 1.7148438 -3.21875
2.7675781 1.7177734 -3.2246094
2.7832031 1.71875 -3.2265625
2.8027344 1.7207031 -3.2304688
2.8203125 1.7226562 -3.234375
2.8378906 1.7236328 -3.2363281
2.8535156 1.7246094 -3.2382812
2.8691406 1.7255859 -3.2382812
2.8847656 1.7255859 -3.2382812
2.9003906 1.7255859 -3.2382812
2.9082031 1.7207031 -3.2304688
2.921875 1.7197266 -3.2285156
2.9375 1.7197266 -3.2285156
2.9511719 1.7197266 -3.2285156
2.9667969 1.7207031 -3.2304688
2.9902344 1.7255859 -3.2382812
3.0078125 1.7255859 -3.2402344
3.0195312 1.7246094 -3.2382812
3.0351562 1.7246094 -3.2382812
3.0507812 1.7255859 -3.2382812
3.0644531 1.7246094 -3.2363281
3.0644531 1.7158203 -3.2207031
3.0820312 1.7167969 -3.2226562
3.0976562 1.7167969 -3.2226562
3.109375 1.7158203 -3.2207031
3.1210938 1.7128906 -3.2148438
3.1777344 1.7363281 -3.2578125
3.171875 1.7246094 -3.2382812
3.359375 1.8173828 -3.4121094
-2.2871094 1.3085938 -2.4785156
-2.2695312 1.3056641 -2.4726562
-2.2519531 1.3027344 -2.4667969
-2.2421875 1.3027344 -2.4667969
-2.2304688 1.3037109 -2.46875
-2.2207031 1.3046875 -2.4707031
-2.2109375 1.3046875 -2.4726562
-2.1992188 1.3056641 -2.4726562
-2.1894531 1.3056641 -2.4746094
-2.1777344 1.3056641 -2.4746094
-2.1660156 1.3056641 -2.4746094
-2.1542969 1.3056641 -2.4726562
-2.1425781 1.3056641 -2.4726562
-2.1308594 1.3056641 -2.4726562
-2.1191406 1.3056641 -2.4746094
-2.109375 1.3066406 -2.4746094
-2.0976562 1.3076172 -2.4765625
-2.0878906 1.3076172 -2.4765625
-2.078125 1.3085938 -2.4785156
-2.0683594 1.3095703 -2.4804688
-2.0566406 1.3105469 -2.4824219
-2.046875 1.3115234 -2.484375
-2.0371094 1.3125 -2.4863281
-2.0273438 1.3134766 -2.4882812
-2.0175781 1.3144531 -2.4902344
-2.0078125 1.3154297 -2.4921875
-1.9980469 1.3173828 -2.4941406
-1.9892578 1.3193359 -2.4980469
-1.9794922 1.3203125 -2.5
-1.9707031 1.3222656 -2.5039062
-1.9619141 1.3242188 -2.5078125
-1.9521484 1.3261719 -2.5117188
-1.9443359 1.328125 -2.515625
-1.9345703 1.3291016 -2.5175781
-1.9238281 1.3300781 -2.5195312
-1.9150391 1.3320312 -2.5234375
-1.9033203 1.3330078 -2.5234375
-1.8916016 1.3330078 -2.5234375
-1.8808594 1.3330078 -2.5253906
-1.8701172 1.3339844 -2.5253906
-1.8583984 1.3339844 -2.5273438
-1.8476562 1.3349609 -2.5273438
-1.8369141 1.3359375 -2.5292969
-1.8271484 1.3378906 -2.5332031
-1.8183594 1.3388672 -2.5351562
-1.8085938 1.3408203 -2.5390625
-1.7988281 1.3427734 -2.5429688
-1.7890625 1.3447266 -2.546875
-1.7792969 1.3457031 -2.5488281
-1.7695312 1.3476562 -2.5527344
-1.7587891 1.3486328 -2.5546875
-1.7490234 1.3496094 -2.5566406
-1.7382812 1.3505859 -2.5585938
-1.7265625 1.3515625 -2.5585938
-1.7158203 1.3525391 -2.5605469
-1.7050781 1.3525391 -2.5625
-1.6933594 1.3525391 -2.5625
-1.6806641 1.3525391 -2.5625
-1.6679688 1.3525391 -2.5605469
-1.6552734 1.3515625 -2.5605469
-1.6435547 1.3515625 -2.5585938
-1.6298828 1.3505859 -2.5566406
-1.6171875 1.3496094 -2.5566406
-1.6054688 1.3496094 -2.5566406
-1.59375 1.3496094 -2.5566406
-1.5810547 1.3496094 -2.5566406
-1.5703125 1.3505859 -2.5585938
-1.5595703 1.3515625 -2.5605469
-1.5498047 1.3535156 -2.5625
-1.5400391 1.3544922 -2.5664062
-1.5292969 1.3564453 -2.5683594
-1.5205078 1.359375 -2.5742188
-1.5107422 1.3613281 -2.578125
-1.5009766 1.3632812 -2.5820312
-1.4912109 1.3652344 -2.5859375
-1.4814453 1.3671875 -2.5898438
-1.4707031 1.3691406 -2.59375
-1.4599609 1.3701172 -2.5957031
-1.4492188 1.3710938 -2.5976562
-1.4365234 1.3710938 -2.5976562
-1.4248047 1.3710938 -2.5976562
-1.4121094 1.3710938 -2.5957031
-1.3994141 1.3701172 -2.5957031
-1.3857422 1.3691406 -2.59375
-1.3730469 1.3681641 -2.5917969
-1.359375 1.3671875 -2.5898438
-1.3466797 1.3662109 -2.5878906
-1.3349609 1.3662109 -2.5878906
-1.3232422 1.3662109 -2.5878906
-1.3115234 1.3671875 -2.5898438
-1.2998047 1.3681641 -2.5917969
-1.2890625 1.3691406 -2.59375
-1.2783203 1.3710938 -2.5957031
-1.2675781 1.3720703 -2.5996094
-1.2578125 1.375 -2.6035156
-1.2470703 1.3759766 -2.6054688
-1.2363281 1.3779297 -2.609375
-1.2246094 1.3789062 -2.6113281
-1.2138672 1.3798828 -2.6132812
-1.2021484 1.3808594 -2.6152344
-1.1904297 1.3808594 -2.6152344
-1.1787109 1.3818359 -2.6171875
-1.1669922 1.3818359 -2.6171875
-1.1542969 1.3828125 -2.6191406
-1.1435547 1.3837891 -2.6210938
-1.1328125 1.3857422 -2.625
-1.1230469 1.3886719 -2.6289062
-1.1132812 1.3916016 -2.6347656
-1.1025391 1.3945312 -2.640625
-1.0917969 1.3955078 -2.6425781
-1.0800781 1.3964844 -2.6445312
-1.0683594 1.3974609 -2.6464844
-1.0556641 1.3974609 -2.6464844
-1.0429688 1.3964844 -2.6445312
-1.0302734 1.3955078 -2.6425781
-1.0175781 1.3955078 -2.6425781
-1.0039062 1.3945312 -2.640625
-0.99169922 1.3935547 -2.6386719
-0.97900391 1.3935547 -2.6386719
-0.96630859 1.3935547 -2.6386719
-0.95458984 1.3935547 -2.6386719
-0.94287109 1.3945312 -2.640625
-0.93212891 1.3964844 -2.6445312
-0.92138672 1.3994141 -2.6503906
-0.91064453 1.4023438 -2.65625
-0.89990234 1.4042969 -2.6601562
-0.88964844 1.4082031 -2.6660156
-0.87890625 1.4101562 -2.671875
-0.8671875 1.4121094 -2.6738281
-0.85546875 1.4140625 -2.6777344
-0.84375 1.4150391 -2.6796875
-0.83203125 1.4160156 -2.6816406
-0.81982422 1.4160156 -2.6816406
-0.80761719 1.4169922 -2.6835938
-0.79492188 1.4169922 -2.6835938
-0.78271484 1.4179688 -2.6855469
-0.77001953 1.4169922 -2.6835938
-0.75732422 1.4169922 -2.6835938
-0.74511719 1.4169922 -2.6835938
-0.73242188 1.4169922 -2.6835938
-0.72021484 1.4179688 -2.6855469
-0.70849609 1.4199219 -2.6894531
-0.69677734 1.4208984 -2.6914062
-0.68505859 1.4228516 -2.6953125
-0.67382812 1.4257812 -2.7011719
-0.66259766 1.4287109 -2.7070312
-0.65087891 1.4316406 -2.7109375
-0.63916016 1.4335938 -2.7148438
-0.62695312 1.4345703 -2.7167969
-0.61474609 1.4355469 -2.71875
-0.60253906 1.4375 -2.7207031
-0.59033203 1.4384766 -2.7246094
-0.578125 1.4394531 -2.7265625
-0.56542969 1.4404297 -2.7285156
-0.55322266 1.4414062 -2.7304688
-0.54101562 1.4423828 -2.7324219
-0.52832031 1.4433594 -2.7324219
-0.515625 1.4433594 -2.734375
-0.50341797 1.4443359 -2.7363281
-0.4909668 1.4453125 -2.7382812
-0.47851562 1.4462891 -2.7402344
-0.46606445 1.4472656 -2.7421875
-0.45385742 1.4492188 -2.7441406
-0.44140625 1.4511719 -2.7480469
-0.42895508 1.4521484 -2.75
-0.41625977 1.453125 -2.7519531
-0.40356445 1.453125 -2.7519531
-0.39086914 1.453125 -2.7519531
-0.37768555 1.453125 -2.7519531
-0.36474609 1.4521484 -2.75
-0.35180664 1.4521484 -2.75
-0.33886719 1.4511719 -2.7480469
-0.32568359 1.4501953 -2.7460938
-0.31274414 1.4501953 -2.7460938
-0.29980469 1.4492188 -2.7441406
-0.28710938 1.4492188 -2.7441406
-0.27441406 1.4501953 -2.7460938
-0.26171875 1.4521484 -2.75
-0.24938965 1.4541016 -2.7539062
-0.23681641 1.4560547 -2.7558594
-0.22424316 1.4580078 -2.7617188
-0.21154785 1.4589844 -2.7636719
-0.19885254 1.4609375 -2.7675781
-0.18603516 1.4628906 -2.7695312
-0.17333984 1.4648438 -2.7734375
-0.16064453 1.4658203 -2.7773438
-0.14770508 1.4677734 -2.7792969
-0.1348877 1.46875 -2.78125
-0.12194824 1.4697266 -2.7832031
-0.10894775 1.4697266 -2.7832031
-0.095947266 1.4697266 -2.7832031
-0.082946777 1.4697266 -2.7832031
-0.069885254 1.4697266 -2.7832031
-0.056854248 1.46875 -2.78125
-0.04385376 1.4677734 -2.7792969
-0.030838013 1.4677734 -2.7792969
-0.017852783 1.4677734 -2.7792969
-0.0048675537 1.4677734 -2.7792969
0.0081253052 1.46875 -2.78125
0.021133423 1.4697266 -2.7832031
0.034179688 1.4716797 -2.7871094
0.047332764 1.4746094 -2.7929688
0.060516357 1.4775391 -2.7988281
0.073730469 1.4814453 -2.8046875
0.087036133 1.484375 -2.8125
0.10040283 1.4873047 -2.8164062
0.1137085 1.4892578 -2.8203125
0.12695312 1.4902344 -2.8222656
0.14013672 1.4902344 -2.8222656
0.15332031 1.4902344 -2.8222656
0.16662598 1.4902344 -2.8222656
0.1796875 1.4902344 -2.8222656
0.19287109 1.4902344 -2.8222656
0.20605469 1.4902344 -2.8222656
0.21936035 1.4902344 -2.8222656
0.23266602 1.4912109 -2.8242188
0.24597168 1.4921875 -2.8261719
0.25927734 1.4931641 -2.828125
0.27270508 1.4941406 -2.8300781
0.28613281 1.4951172 -2.8320312
0.29956055 1.4960938 -2.8339844
0.31323242 1.4970703 -2.8359375
0.32666016 1.4990234 -2.8398438
0.34057617 1.5019531 -2.84375
0.35449219 1.5039062 -2.8496094
0.36865234 1.5078125 -2.8554688
0.3828125 1.5117188 -2.8613281
0.3972168 1.5146484 -2.8691406
0.41113281 1.5175781 -2.8730469
0.42529297 1.5195312 -2.8769531
0.43896484 1.5205078 -2.8789062
0.45239258 1.5205078 -2.8789062
0.46557617 1.5195312 -2.8769531
0.47875977 1.5185547 -2.875
0.49194336 1.5175781 -2.8730469
0.50488281 1.515625 -2.8710938
0.51806641 1.515625 -2.8710938
0.53173828 1.515625 -2.8710938
0.54541016 1.5175781 -2.8730469
0.55908203 1.5185547 -2.875
0.57275391 1.5185547 -2.8769531
0.58691406 1.5195312 -2.8789062
0.60058594 1.5205078 -2.8808594
0.61474609 1.5224609 -2.8828125
0.62890625 1.5244141 -2.8867188
0.64404297 1.5273438 -2.8925781
0.65869141 1.53125 -2.8984375
0.67333984 1.5332031 -2.9042969
0.68847656 1.5361328 -2.9101562
0.70263672 1.5380859 -2.9121094
0.71630859 1.5380859 -2.9121094
0.72998047 1.5380859 -2.9121094
0.74316406 1.5371094 -2.9101562
0.75585938 1.5361328 -2.9082031
0.76904297 1.5341797 -2.90625
0.78222656 1.5341797 -2.90625
0.79589844 1.5341797 -2.90625
0.80957031 1.5341797 -2.90625
0.82373047 1.5341797 -2.90625
0.83691406 1.5341797 -2.90625
0.85107422 1.5351562 -2.9082031
0.86474609 1.5351562 -2.9082031
0.87792969 1.5351562 -2.9082031
0.89160156 1.5341797 -2.90625
0.90478516 1.5341797 -2.90625
0.91894531 1.5351562 -2.9082031
0.93261719 1.5361328 -2.9082031
0.94775391 1.5380859 -2.9121094
0.96289062 1.5400391 -2.9160156
0.97753906 1.5419922 -2.9199219
0.99316406 1.5449219 -2.9257812
1.0078125 1.546875 -2.9296875
1.0244141 1.5507812 -2.9355469
1.0390625 1.5527344 -2.9414062
1.0546875 1.5556641 -2.9472656
1.0703125 1.5585938 -2.9511719
1.0859375 1.5595703 -2.9550781
1.0996094 1.5615234 -2.9570312
1.1142578 1.5615234 -2.9570312
1.1269531 1.5605469 -2.9550781
1.1396484 1.5585938 -2.953125
1.1523438 1.5566406 -2.9492188
1.1640625 1.5546875 -2.9453125
1.1767578 1.5527344 -2.9414062
1.1904297 1.5527344 -2.9414062
1.2050781 1.5537109 -2.9433594
1.2207031 1.5556641 -2.9472656
1.2363281 1.5585938 -2.953125
1.2539062 1.5634766 -2.9609375
1.2714844 1.5683594 -2.96875
1.2890625 1.5722656 -2.9785156
1.3056641 1.5761719 -2.984375
1.3222656 1.5791016 -2.9902344
1.3378906 1.5810547 -2.9941406
1.3535156 1.5830078 -2.9980469
1.3671875 1.5820312 -2.9960938
1.3798828 1.5810547 -2.9941406
1.3925781 1.5791016 -2.9902344
1.4042969 1.5771484 -2.9863281
1.4160156 1.5742188 -2.9824219
1.4277344 1.5722656 -2.9785156
1.4404297 1.5703125 -2.9746094
1.4550781 1.5712891 -2.9765625
1.4697266 1.5722656 -2.9785156
1.4853516 1.5742188 -2.9824219
1.5019531 1.5771484 -2.9863281
1.5185547 1.5800781 -2.9921875
1.5361328 1.5830078 -2.9980469
1.5527344 1.5859375 -3.0019531
1.5693359 1.5878906 -3.0078125
1.5849609 1.5898438 -3.0117188
1.6015625 1.5927734 -3.015625
1.6171875 1.59375 -3.0195312
1.6328125 1.5947266 -3.0214844
1.6474609 1.5957031 -3.0214844
1.6611328 1.5957031 -3.0214844
1.6757812 1.5957031 -3.0214844
1.6894531 1.5957031 -3.0214844
1.703125 1.5947266 -3.0214844
1.7167969 1.5947266 -3.0195312
1.7304688 1.5947266 -3.0195312
1.7451172 1.5947266 -3.0195312
1.7597656 1.5957031 -3.0214844
1.7753906 1.5966797 -3.0234375
1.7910156 1.5986328 -3.0273438
1.8076172 1.6005859 -3.03125
1.8251953 1.6025391 -3.0351562
1.8417969 1.6054688 -3.0390625
1.859375 1.6074219 -3.0449219
1.875 1.609375 -3.0488281
1.8916016 1.6113281 -3.0507812
1.90625 1.6113281 -3.0527344
1.9208984 1.6123047 -3.0527344
1.9355469 1.6123047 -3.0546875
1.9511719 1.6132812 -3.0546875
1.9648438 1.6132812 -3.0546875
1.9794922 1.6132812 -3.0546875
1.9941406 1.6132812 -3.0566406
2.0078125 1.6142578 -3.0566406
2.0234375 1.6152344 -3.0585938
2.0410156 1.6171875 -3.0625
2.0585938 1.6201172 -3.0683594
2.078125 1.6230469 -3.0742188
2.0957031 1.6269531 -3.0820312
2.1171875 1.6308594 -3.0898438
2.1347656 1.6337891 -3.0957031
2.1542969 1.6376953 -3.1015625
2.1699219 1.6386719 -3.1035156
2.1855469 1.6396484 -3.1054688
2.2011719 1.6396484 -3.1054688
2.2148438 1.6396484 -3.1054688
2.2285156 1.6386719 -3.1035156
2.2421875 1.6386719 -3.1035156
2.2558594 1.6386719 -3.1035156
2.2734375 1.6396484 -3.1054688
2.2910156 1.6425781 -3.109375
2.3105469 1.6455078 -3.1171875
2.3300781 1.6494141 -3.125
2.3496094 1.6533203 -3.1308594
2.3710938 1.6572266 -3.1386719
2.3886719 1.6601562 -3.1445312
2.4082031 1.6621094 -3.1484375
2.4238281 1.6640625 -3.1503906
2.4414062 1.6650391 -3.1542969
2.4550781 1.6650391 -3.1542969
2.4707031 1.6660156 -3.1542969
2.4863281 1.6660156 -3.15625
2.5019531 1.6669922 -3.15625
2.5175781 1.6679688 -3.1582031
2.5351562 1.6689453 -3.1601562
2.5527344 1.6708984 -3.1640625
2.5703125 1.6728516 -3.1679688
2.5878906 1.6748047 -3.171875
2.6074219 1.6777344 -3.1777344
2.6269531 1.6806641 -3.1816406
2.6464844 1.6835938 -3.1894531
2.6660156 1.6865234 -3.1953125
2.6875 1.6904297 -3.2011719
2.7070312 1.6933594 -3.2070312
2.7285156 1.6972656 -3.2128906
2.7480469 1.7001953 -3.21875
2.7675781 1.703125 -3.2246094
2.7832031 1.7041016 -3.2265625
2.8007812 1.7050781 -3.2304688
2.8203125 1.7070312 -3.2324219
2.8359375 1.7080078 -3.234375
2.8535156 1.7089844 -3.2363281
2.8691406 1.7099609 -3.2382812
2.8847656 1.7099609 -3.2382812
2.8984375 1.7099609 -3.2382812
2.9335938 1.7207031 -3.2578125
2.9453125 1.71875 -3.2558594
2.9609375 1.71875 -3.2539062
2.9726562 1.7167969 -3.2519531
2.984375 1.7158203 -3.2480469
2.9882812 1.7080078 -3.2363281
2.9980469 1.7060547 -3.2304688
3.0175781 1.7070312 -3.234375
3.0332031 1.7080078 -3.2363281
3.0507812 1.7099609 -3.2382812
3.0742188 1.7138672 -3.2460938
3.0878906 1.7128906 -3.2441406
3.1347656 1.7314453 -3.2792969
3.109375 1.7089844 -3.2363281
3.1230469 1.7070312 -3.234375
3.1484375 1.7128906 -3.2441406
3.1855469 1.7246094 -3.2675781
3.2011719 1.7255859 -3.2675781
3.1992188 1.7158203 -3.25
3.3886719 1.8095703 -3.4257812
-2.2675781 1.2929688 -2.4707031
-2.2480469 1.2880859 -2.4609375
-2.2363281 1.2880859 -2.4609375
-2.2265625 1.2890625 -2.4628906
-2.2148438 1.2900391 -2.4648438
-2.2050781 1.2910156 -2.4667969
-2.1953125 1.2910156 -2.4667969
-2.1855469 1.2919922 -2.46875
-2.1738281 1.2919922 -2.46875
-2.1621094 1.2919922 -2.46875
-2.1503906 1.2919922 -2.46875
-2.1386719 1.2919922 -2.46875
-2.1289062 1.2929688 -2.4707031
-2.1171875 1.2939453 -2.4726562
-2.1074219 1.2939453 -2.4726562
-2.0976562 1.2949219 -2.4746094
-2.0878906 1.2958984 -2.4765625
-2.078125 1.296875 -2.4785156
-2.0683594 1.2978516 -2.4804688
-2.0585938 1.2998047 -2.484375
-2.0488281 1.3007812 -2.4863281
-2.0371094 1.3017578 -2.4863281
-2.0273438 1.3027344 -2.4882812
-2.0175781 1.3027344 -2.4902344
-2.0078125 1.3037109 -2.4921875
-1.9980469 1.3046875 -2.4941406
-1.9882812 1.3066406 -2.4960938
-1.9785156 1.3076172 -2.4980469
-1.96875 1.3095703 -2.5019531
-1.9599609 1.3105469 -2.5039062
-1.9501953 1.3125 -2.5078125
-1.9414062 1.3144531 -2.5117188
-1.9326172 1.3164062 -2.515625
-1.9238281 1.3183594 -2.5195312
-1.9140625 1.3193359 -2.5214844
-1.9033203 1.3212891 -2.5234375
-1.8925781 1.3212891 -2.5253906
-1.8818359 1.3222656 -2.5253906
-1.8701172 1.3222656 -2.5273438
-1.8603516 1.3232422 -2.5292969
-1.8486328 1.3242188 -2.5292969
-1.8388672 1.3251953 -2.53125
-1.8291016 1.3261719 -2.5351562
-1.8183594 1.328125 -2.5371094
-1.8085938 1.3291016 -2.5390625
-1.7988281 1.3300781 -2.5410156
-1.7890625 1.3320312 -2.5449219
-1.7783203 1.3330078 -2.546875
-1.7675781 1.3339844 -2.5488281
-1.7568359 1.3349609 -2.5507812
-1.7460938 1.3359375 -2.5527344
-1.734375 1.3359375 -2.5527344
-1.7236328 1.3369141 -2.5546875
-1.7138672 1.3378906 -2.5566406
-1.7021484 1.3388672 -2.5585938
-1.6914062 1.3388672 -2.5585938
-1.6796875 1.3398438 -2.5605469
-1.6669922 1.3388672 -2.5585938
-1.6552734 1.3388672 -2.5585938
-1.6416016 1.3378906 -2.5566406
-1.6289062 1.3378906 -2.5566406
-1.6162109 1.3369141 -2.5546875
-1.6044922 1.3369141 -2.5546875
-1.5917969 1.3369141 -2.5546875
-1.5810547 1.3369141 -2.5546875
-1.5703125 1.3378906 -2.5566406
-1.5595703 1.3388672 -2.5585938
-1.5488281 1.3408203 -2.5625
-1.5390625 1.3427734 -2.5644531
-1.5292969 1.3447266 -2.5683594
-1.5195312 1.3466797 -2.5722656
-1.5107422 1.3496094 -2.578125
-1.5009766 1.3515625 -2.5820312
-1.4912109 1.3535156 -2.5859375
-1.4804688 1.3554688 -2.5898438
-1.4707031 1.3564453 -2.5917969
-1.4589844 1.3574219 -2.59375
-1.4482422 1.3583984 -2.5957031
-1.4355469 1.3583984 -2.5957031
-1.4238281 1.3583984 -2.5957031
-1.4101562 1.3574219 -2.59375
-1.3974609 1.3564453 -2.5917969
-1.3837891 1.3544922 -2.5878906
-1.3701172 1.3535156 -2.5859375
-1.3574219 1.3525391 -2.5839844
-1.3447266 1.3515625 -2.5839844
-1.3320312 1.3515625 -2.5839844
-1.3212891 1.3525391 -2.5839844
-1.3095703 1.3525391 -2.5859375
-1.2978516 1.3535156 -2.5878906
-1.2871094 1.3554688 -2.5898438
-1.2763672 1.3564453 -2.5917969
-1.265625 1.3583984 -2.5957031
-1.2548828 1.359375 -2.5976562
-1.2451172 1.3623047 -2.6015625
-1.234375 1.3632812 -2.6054688
-1.2226562 1.3642578 -2.6074219
-1.2119141 1.3652344 -2.609375
-1.2001953 1.3662109 -2.6113281
-1.1884766 1.3671875 -2.6113281
-1.1767578 1.3671875 -2.6132812
-1.1650391 1.3681641 -2.6132812
-1.1533203 1.3691406 -2.6152344
-1.1425781 1.3701172 -2.6191406
-1.1318359 1.3720703 -2.6230469
-1.1220703 1.375 -2.6269531
-1.1123047 1.3779297 -2.6328125
-1.1015625 1.3808594 -2.6386719
-1.0908203 1.3828125 -2.6425781
-1.0800781 1.3847656 -2.6445312
-1.0683594 1.3847656 -2.6464844
-1.0556641 1.3847656 -2.6464844
-1.0429688 1.3847656 -2.6445312
-1.0302734 1.3837891 -2.6425781
-1.0175781 1.3828125 -2.6425781
-1.0039062 1.3818359 -2.640625
-0.99121094 1.3808594 -2.6386719
-0.97802734 1.3798828 -2.6367188
-0.96533203 1.3789062 -2.6347656
-0.953125 1.3789062 -2.6347656
-0.94091797 1.3798828 -2.6367188
-0.9296875 1.3808594 -2.6386719
-0.91845703 1.3828125 -2.6425781
-0.90771484 1.3857422 -2.6464844
-0.89746094 1.3876953 -2.6523438
-0.88671875 1.3916016 -2.6582031
-0.87548828 1.3935547 -2.6621094
-0.86474609 1.3955078 -2.6660156
-0.85302734 1.3974609 -2.6699219
-0.84130859 1.3984375 -2.671875
-0.82958984 1.3994141 -2.6738281
-0.81787109 1.4003906 -2.6757812
-0.80566406 1.4013672 -2.6777344
-0.79345703 1.4023438 -2.6796875
-0.78125 1.4023438 -2.6796875
-0.76904297 1.4033203 -2.6816406
-0.75683594 1.4033203 -2.6816406
-0.74414062 1.4033203 -2.6816406
-0.73144531 1.4033203 -2.6816406
-0.71923828 1.4042969 -2.6816406
-0.70751953 1.4052734 -2.6835938
-0.69580078 1.4072266 -2.6894531
-0.68408203 1.4091797 -2.6933594
-0.67285156 1.4121094 -2.6972656
-0.66162109 1.4140625 -2.703125
-0.64990234 1.4160156 -2.7070312
-0.63769531 1.4179688 -2.7089844
-0.62548828 1.4189453 -2.7109375
-0.61328125 1.4199219 -2.7128906
-0.60058594 1.4199219 -2.7128906
-0.58837891 1.4208984 -2.7148438
-0.57568359 1.4208984 -2.7148438
-0.56298828 1.4208984 -2.7148438
-0.55078125 1.421875 -2.7167969
-0.53857422 1.4228516 -2.71875
-0.52587891 1.4228516 -2.71875
-0.51367188 1.4248047 -2.7207031
-0.50097656 1.4257812 -2.7246094
-0.48901367 1.4267578 -2.7265625
-0.4765625 1.4277344 -2.7285156
-0.46459961 1.4296875 -2.7324219
-0.45239258 1.4316406 -2.7363281
-0.44018555 1.4335938 -2.7402344
-0.42773438 1.4355469 -2.7421875
-0.4152832 1.4365234 -2.7441406
-0.40283203 1.4375 -2.7460938
-0.39013672 1.4384766 -2.7480469
-0.37719727 1.4384766 -2.7480469
-0.36450195 1.4384766 -2.7480469
-0.3515625 1.4384766 -2.7480469
-0.33862305 1.4375 -2.7460938
-0.32568359 1.4365234 -2.7460938
-0.31274414 1.4365234 -2.7460938
-0.30004883 1.4375 -2.7460938
-0.28735352 1.4384766 -2.7480469
-0.2746582 1.4394531 -2.75
-0.26220703 1.4414062 -2.7539062
-0.24975586 1.4433594 -2.7578125
-0.23706055 1.4453125 -2.7617188
-0.2244873 1.4462891 -2.7636719
-0.21179199 1.4482422 -2.7675781
-0.19897461 1.4492188 -2.7695312
-0.1862793 1.4511719 -2.7734375
-0.17346191 1.4521484 -2.7753906
-0.16064453 1.4541016 -2.7773438
-0.14782715 1.4550781 -2.7792969
-0.1348877 1.4560547 -2.78125
-0.12194824 1.4560547 -2.7832031
-0.10894775 1.4570312 -2.7832031
-0.095947266 1.4570312 -2.7832031
-0.082946777 1.4570312 -2.7832031
-0.069946289 1.4570312 -2.7832031
-0.056884766 1.4560547 -2.78125
-0.04385376 1.4550781 -2.78125
-0.030853271 1.4550781 -2.7792969
-0.017852783 1.4541016 -2.7792969
-0.0048675537 1.4541016 -2.7773438
0.0081176758 1.4541016 -2.7792969
0.021118164 1.4550781 -2.7792969
0.03414917 1.4560547 -2.7832031
0.047241211 1.4589844 -2.7871094
0.06036377 1.4619141 -2.7929688
0.073547363 1.4648438 -2.7988281
0.086853027 1.4677734 -2.8046875
0.10015869 1.4707031 -2.8105469
0.11346436 1.4736328 -2.8144531
0.12670898 1.4746094 -2.8164062
0.14001465 1.4755859 -2.8183594
0.15319824 1.4755859 -2.8183594
0.16638184 1.4755859 -2.8183594
0.17956543 1.4755859 -2.8183594
0.19262695 1.4755859 -2.8183594
0.20581055 1.4755859 -2.8183594
0.21911621 1.4755859 -2.8203125
0.23242188 1.4765625 -2.8203125
0.24560547 1.4765625 -2.8222656
0.2590332 1.4775391 -2.8242188
0.27246094 1.4785156 -2.8261719
0.28588867 1.4804688 -2.828125
0.29931641 1.4814453 -2.8300781
0.31274414 1.4824219 -2.8320312
0.32617188 1.4833984 -2.8359375
0.34008789 1.4853516 -2.8398438
0.35400391 1.4882812 -2.84375
0.36791992 1.4912109 -2.8496094
0.38208008 1.4951172 -2.8554688
0.39624023 1.4980469 -2.8613281
0.41015625 1.5 -2.8671875
0.42431641 1.5019531 -2.8710938
0.43774414 1.5029297 -2.8710938
0.45117188 1.5029297 -2.8710938
0.46435547 1.5019531 -2.8691406
0.47729492 1.5009766 -2.8671875
0.49047852 1.4990234 -2.8652344
0.50341797 1.4990234 -2.8632812
0.51708984 1.4990234 -2.8632812
0.53076172 1.5 -2.8671875
0.54443359 1.5009766 -2.8691406
0.55859375 1.5029297 -2.8710938
0.57275391 1.5039062 -2.875
0.58642578 1.5048828 -2.8769531
0.60009766 1.5058594 -2.8789062
0.61474609 1.5087891 -2.8828125
0.62890625 1.5107422 -2.8867188
0.64355469 1.5126953 -2.890625
0.65820312 1.5166016 -2.8964844
0.67333984 1.5185547 -2.9023438
0.6875 1.5214844 -2.90625
0.70166016 1.5224609 -2.9082031
0.71533203 1.5224609 -2.9101562
0.72851562 1.5214844 -2.9082031
0.74169922 1.5205078 -2.90625
0.75488281 1.5195312 -2.9042969
0.76757812 1.5175781 -2.9003906
0.78076172 1.5175781 -2.8984375
0.79443359 1.5175781 -2.8984375
0.80810547 1.5175781 -2.8984375
0.82177734 1.5175781 -2.9003906
0.83544922 1.5185547 -2.9003906
0.84960938 1.5195312 -2.9042969
0.86376953 1.5205078 -2.90625
0.87792969 1.5214844 -2.90625
0.89208984 1.5224609 -2.9082031
0.90625 1.5234375 -2.9101562
0.92089844 1.5244141 -2.9140625
0.93554688 1.5263672 -2.9179688
0.95117188 1.5292969 -2.921875
0.96630859 1.5322266 -2.9277344
0.98193359 1.5351562 -2.9316406
0.99658203 1.5371094 -2.9355469
1.0117188 1.5390625 -2.9414062
1.0273438 1.5419922 -2.9453125
1.0419922 1.5439453 -2.9492188
1.0576172 1.5458984 -2.953125
1.0722656 1.546875 -2.9570312
1.0869141 1.5478516 -2.9589844
1.1015625 1.5488281 -2.9589844
1.1142578 1.5478516 -2.9589844
1.1269531 1.546875 -2.9550781
1.1396484 1.5449219 -2.9511719
1.1513672 1.5429688 -2.9472656
1.1640625 1.5400391 -2.9433594
1.1767578 1.5390625 -2.9414062
1.1894531 1.5380859 -2.9394531
1.2041016 1.5390625 -2.9414062
1.2207031 1.5419922 -2.9472656
1.2363281 1.5449219 -2.953125
1.2539062 1.5498047 -2.9609375
1.2714844 1.5537109 -2.96875
1.2880859 1.5576172 -2.9765625
1.3056641 1.5615234 -2.984375
1.3222656 1.5644531 -2.9902344
1.3378906 1.5664062 -2.9941406
1.3535156 1.5683594 -2.9960938
1.3671875 1.5683594 -2.9960938
1.3798828 1.5673828 -2.9941406
1.3925781 1.5654297 -2.9902344
1.4042969 1.5625 -2.9863281
1.4160156 1.5605469 -2.9824219
1.4277344 1.5585938 -2.9785156
1.4414062 1.5576172 -2.9765625
1.4550781 1.5576172 -2.9765625
1.4707031 1.5595703 -2.9804688
1.4863281 1.5615234 -2.984375
1.5029297 1.5644531 -2.9882812
1.5195312 1.5664062 -2.9921875
1.5361328 1.5683594 -2.9980469
1.5527344 1.5712891 -3.0019531
1.5683594 1.5732422 -3.0058594
1.5849609 1.5751953 -3.0117188
1.6005859 1.5771484 -3.0136719
1.6152344 1.578125 -3.015625
1.6308594 1.5791016 -3.0175781
1.6455078 1.5800781 -3.0195312
1.6601562 1.5810547 -3.0214844
1.6748047 1.5810547 -3.0214844
1.6884766 1.5810547 -3.0214844
1.703125 1.5810547 -3.0214844
1.7167969 1.5810547 -3.0214844
1.7314453 1.5810547 -3.0214844
1.7460938 1.5810547 -3.0214844
1.7617188 1.5820312 -3.0234375
1.7773438 1.5839844 -3.0273438
1.7929688 1.5859375 -3.0292969
1.8085938 1.5869141 -3.0332031
1.8251953 1.5888672 -3.0371094
1.8417969 1.5917969 -3.0410156
1.859375 1.59375 -3.0449219
1.875 1.5947266 -3.0488281
1.8916016 1.5966797 -3.0507812
1.90625 1.5976562 -3.0527344
1.921875 1.5986328 -3.0546875
1.9375 1.5996094 -3.0566406
1.9521484 1.5996094 -3.0566406
1.9667969 1.5996094 -3.0566406
1.9814453 1.6005859 -3.0585938
1.9951172 1.6005859 -3.0585938
2.0097656 1.6015625 -3.0605469
2.0253906 1.6025391 -3.0625
2.0429688 1.6044922 -3.0644531
2.0605469 1.6064453 -3.0703125
2.078125 1.609375 -3.0761719
2.0976562 1.6132812 -3.0839844
2.1171875 1.6171875 -3.0898438
2.1367188 1.6201172 -3.0957031
2.1542969 1.6230469 -3.1015625
2.1699219 1.625 -3.1035156
2.1855469 1.625 -3.1054688
2.1992188 1.625 -3.1054688
2.2128906 1.6240234 -3.1035156
2.2265625 1.6230469 -3.1015625
2.2402344 1.6220703 -3.0996094
2.2539062 1.6210938 -3.0976562
2.2675781 1.6210938 -3.0976562
2.2851562 1.6230469 -3.1015625
2.3027344 1.6259766 -3.1054688
2.3222656 1.6289062 -3.1113281
2.3417969 1.6328125 -3.1191406
2.3613281 1.6357422 -3.1269531
2.3808594 1.6396484 -3.1328125
2.3984375 1.6416016 -3.1367188
2.4160156 1.6435547 -3.140625
2.4335938 1.6455078 -3.1445312
2.4511719 1.6474609 -3.1464844
2.4667969 1.6484375 -3.1484375
2.4824219 1.6494141 -3.1503906
2.5 1.6503906 -3.1542969
2.5175781 1.6523438 -3.1582031
2.5351562 1.6542969 -3.1621094
2.5527344 1.65625 -3.1660156
2.5722656 1.6591797 -3.1699219
2.5917969 1.6621094 -3.1757812
2.609375 1.6640625 -3.1796875
2.6289062 1.6669922 -3.1855469
2.6484375 1.6699219 -3.1914062
2.6679688 1.6728516 -3.1972656
2.6875 1.6757812 -3.203125
2.7089844 1.6796875 -3.2089844
2.7285156 1.6826172 -3.2148438
2.75 1.6855469 -3.2207031
2.7675781 1.6884766 -3.2265625
2.7851562 1.6894531 -3.2285156
2.8027344 1.6904297 -3.2304688
2.8203125 1.6914062 -3.2324219
2.8359375 1.6923828 -3.234375
2.8515625 1.6933594 -3.2363281
2.8691406 1.6943359 -3.2363281
2.8847656 1.6943359 -3.2382812
2.8984375 1.6943359 -3.2363281
2.9199219 1.6972656 -3.2441406
2.9355469 1.6972656 -3.2441406
2.9492188 1.6972656 -3.2421875
2.9609375 1.6953125 -3.2402344
2.9746094 1.6943359 -3.2382812
2.984375 1.6914062 -3.2324219
3 1.6914062 -3.2324219
3.0195312 1.6933594 -3.2363281
3.0371094 1.6953125 -3.2402344
3.0585938 1.6982422 -3.2460938
3.0820312 1.703125 -3.2539062
3.0917969 1.7011719 -3.25
3.1210938 1.7080078 -3.2636719
3.1425781 1.7109375 -3.2695312
3.1621094 1.7128906 -3.2734375
3.1816406 1.7167969 -3.2792969
3.2011719 1.71875 -3.2832031
3.21875 1.7197266 -3.2851562
3.2148438 1.7089844 -3.265625
3.2207031 1.7041016 -3.2558594
-2.2402344 1.2734375 -2.4550781
-2.2304688 1.2734375 -2.4550781
-2.2207031 1.2744141 -2.4570312
-2.2109375 1.2753906 -2.4589844
-2.2011719 1.2763672 -2.4609375
-2.1914062 1.2773438 -2.4628906
-2.1816406 1.2783203 -2.4648438
-2.171875 1.2792969 -2.4667969
-2.1601562 1.2792969 -2.4667969
-2.1484375 1.2802734 -2.4667969
-2.1386719 1.2802734 -2.4667969
-2.1269531 1.2802734 -2.46875
-2.1171875 1.28125 -2.46875
-2.1074219 1.2822266 -2.4726562
-2.0957031 1.2832031 -2.4746094
-2.0878906 1.2841797 -2.4765625
-2.078125 1.2851562 -2.4785156
-2.0683594 1.2871094 -2.4824219
-2.0585938 1.2880859 -2.484375
-2.0488281 1.2900391 -2.4863281
-2.0390625 1.2900391 -2.4882812
-2.0292969 1.2910156 -2.4902344
-2.0175781 1.2919922 -2.4902344
-2.0078125 1.2919922 -2.4921875
-1.9980469 1.2929688 -2.4941406
-1.9873047 1.2949219 -2.4960938
-1.9775391 1.2958984 -2.4980469
-1.9677734 1.296875 -2.5
-1.9580078 1.2978516 -2.5019531
-1.9482422 1.2998047 -2.5058594
-1.9404297 1.3017578 -2.5097656
-1.9316406 1.3037109 -2.5136719
-1.921875 1.3056641 -2.5175781
-1.9130859 1.3076172 -2.5214844
-1.9033203 1.3085938 -2.5234375
-1.8925781 1.3095703 -2.5253906
-1.8828125 1.3105469 -2.5273438
-1.8720703 1.3115234 -2.5292969
-1.8613281 1.3125 -2.5292969
-1.8505859 1.3134766 -2.53125
-1.8398438 1.3144531 -2.5332031
-1.8300781 1.3154297 -2.5351562
-1.8193359 1.3164062 -2.5371094
-1.8085938 1.3173828 -2.5390625
-1.7988281 1.3183594 -2.5410156
-1.7871094 1.3193359 -2.5429688
-1.7763672 1.3203125 -2.5449219
-1.765625 1.3203125 -2.546875
-1.7548828 1.3212891 -2.5488281
-1.7441406 1.3222656 -2.5488281
-1.7333984 1.3232422 -2.5507812
-1.7216797 1.3232422 -2.5527344
-1.7119141 1.3242188 -2.5546875
-1.7011719 1.3261719 -2.5566406
-1.6894531 1.3261719 -2.5566406
-1.6777344 1.3261719 -2.5566406
-1.6660156 1.3261719 -2.5566406
-1.6533203 1.3261719 -2.5566406
-1.640625 1.3251953 -2.5546875
-1.6279297 1.3242188 -2.5546875
-1.6152344 1.3242188 -2.5527344
-1.6025391 1.3232422 -2.5527344
-1.5908203 1.3232422 -2.5527344
-1.5791016 1.3242188 -2.5527344
-1.5683594 1.3251953 -2.5546875
-1.5576172 1.3261719 -2.5566406
-1.5478516 1.328125 -2.5605469
-1.5380859 1.3300781 -2.5644531
-1.5283203 1.3320312 -2.5683594
-1.5195312 1.3339844 -2.5722656
-1.5097656 1.3369141 -2.5761719
-1.5 1.3388672 -2.5820312
-1.4902344 1.3408203 -2.5859375
-1.4804688 1.3427734 -2.5878906
-1.4697266 1.34375 -2.5917969
-1.4589844 1.3447266 -2.59375
-1.4462891 1.3447266 -2.59375
-1.4345703 1.3447266 -2.59375
-1.4228516 1.3447266 -2.59375
-1.4091797 1.34375 -2.5917969
-1.3955078 1.3427734 -2.5878906
-1.3828125 1.3417969 -2.5859375
-1.3691406 1.3398438 -2.5839844
-1.3554688 1.3388672 -2.5820312
-1.3427734 1.3378906 -2.5800781
-1.3310547 1.3378906 -2.5800781
-1.3193359 1.3388672 -2.5820312
-1.3076172 1.3388672 -2.5820312
-1.296875 1.3408203 -2.5859375
-1.2861328 1.3417969 -2.5878906
-1.2753906 1.34375 -2.5898438
-1.2646484 1.3447266 -2.59375
-1.2548828 1.3466797 -2.5976562
-1.2441406 1.3486328 -2.5996094
-1.2333984 1.3505859 -2.6035156
-1.2216797 1.3515625 -2.6054688
-1.2109375 1.3525391 -2.6074219
-1.1992188 1.3535156 -2.609375
-1.1884766 1.3544922 -2.6113281
-1.1767578 1.3544922 -2.6113281
-1.1650391 1.3554688 -2.6132812
-1.1533203 1.3564453 -2.6152344
-1.1425781 1.3583984 -2.6191406
-1.1318359 1.3603516 -2.6230469
-1.1220703 1.3623047 -2.6269531
-1.1113281 1.3652344 -2.6328125
-1.1015625 1.3681641 -2.6367188
-1.0908203 1.3701172 -2.6425781
-1.0800781 1.3710938 -2.6445312
-1.0683594 1.3730469 -2.6464844
-1.0556641 1.3730469 -2.6464844
-1.0429688 1.3730469 -2.6464844
-1.0302734 1.3710938 -2.6445312
-1.0175781 1.3710938 -2.6425781
-1.0039062 1.3691406 -2.640625
-0.99121094 1.3681641 -2.6386719
-0.97753906 1.3671875 -2.6347656
-0.96484375 1.3662109 -2.6328125
-0.95214844 1.3662109 -2.6328125
-0.93994141 1.3662109 -2.6328125
-0.92822266 1.3671875 -2.6347656
-0.91699219 1.3681641 -2.6386719
-0.90625 1.3701172 -2.6425781
-0.89501953 1.3730469 -2.6464844
-0.88427734 1.375 -2.6523438
-0.87353516 1.3769531 -2.65625
-0.86230469 1.3789062 -2.6601562
-0.85107422 1.3808594 -2.6621094
-0.83935547 1.3828125 -2.6660156
-0.82763672 1.3837891 -2.6679688
-0.81591797 1.3847656 -2.6699219
-0.80419922 1.3857422 -2.671875
-0.79199219 1.3867188 -2.6738281
-0.77978516 1.3876953 -2.6757812
-0.76757812 1.3886719 -2.6757812
-0.75537109 1.3886719 -2.6757812
-0.74267578 1.3886719 -2.6757812
-0.73046875 1.3886719 -2.6777344
-0.71826172 1.3896484 -2.6777344
-0.70605469 1.390625 -2.6796875
-0.69433594 1.3916016 -2.6835938
-0.68310547 1.3935547 -2.6875
-0.671875 1.3964844 -2.6933594
-0.66015625 1.3994141 -2.6972656
-0.6484375 1.4013672 -2.7011719
-0.63671875 1.4023438 -2.703125
-0.62451172 1.4033203 -2.7050781
-0.61132812 1.4023438 -2.7050781
-0.59863281 1.4023438 -2.7050781
-0.5859375 1.4023438 -2.703125
-0.57324219 1.4023438 -2.703125
-0.56103516 1.4023438 -2.7050781
-0.54833984 1.4033203 -2.7050781
-0.53613281 1.4042969 -2.7070312
-0.52392578 1.4052734 -2.7089844
-0.51171875 1.40625 -2.7109375
-0.49951172 1.4082031 -2.7148438
-0.48754883 1.4091797 -2.7167969
-0.4753418 1.4121094 -2.7207031
-0.46313477 1.4130859 -2.7246094
-0.45117188 1.4150391 -2.7285156
-0.43896484 1.4169922 -2.7324219
-0.42700195 1.4199219 -2.7363281
-0.41455078 1.4208984 -2.7402344
-0.40209961 1.421875 -2.7421875
-0.3894043 1.4228516 -2.7441406
-0.37670898 1.4238281 -2.7441406
-0.36401367 1.4238281 -2.7460938
-0.35131836 1.4238281 -2.7460938
-0.33837891 1.4238281 -2.7460938
-0.32568359 1.4238281 -2.7460938
-0.31274414 1.4238281 -2.7460938
-0.30004883 1.4248047 -2.7460938
-0.28759766 1.4257812 -2.75
-0.27490234 1.4277344 -2.7519531
-0.26245117 1.4296875 -2.7558594
-0.25 1.4316406 -2.7617188
-0.23730469 1.4335938 -2.7636719
-0.22473145 1.4345703 -2.7675781
-0.21203613 1.4365234 -2.7695312
-0.19921875 1.4375 -2.7714844
-0.18640137 1.4394531 -2.7753906
-0.17358398 1.4404297 -2.7773438
-0.1607666 1.4414062 -2.7792969
-0.14782715 1.4414062 -2.7792969
-0.1348877 1.4423828 -2.78125
-0.12194824 1.4433594 -2.7832031
-0.10894775 1.4443359 -2.7832031
-0.095947266 1.4443359 -2.7832031
-0.082946777 1.4443359 -2.7832031
-0.069946289 1.4443359 -2.7832031
-0.056915283 1.4433594 -2.7832031
-0.043884277 1.4423828 -2.78125
-0.030853271 1.4414062 -2.7792969
-0.017852783 1.4414062 -2.7792969
-0.0048675537 1.4404297 -2.7773438
0.0081176758 1.4404297 -2.7773438
0.021102905 1.4404297 -2.7773438
0.034088135 1.4414062 -2.7792969
0.047149658 1.4433594 -2.7832031
0.060272217 1.4462891 -2.7871094
0.073425293 1.4492188 -2.7929688
0.086669922 1.4521484 -2.7988281
0.099975586 1.4550781 -2.8046875
0.11322021 1.4570312 -2.8085938
0.12646484 1.4589844 -2.8125
0.13977051 1.4599609 -2.8144531
0.1529541 1.4609375 -2.8164062
0.16625977 1.4609375 -2.8164062
0.17932129 1.4609375 -2.8164062
0.19250488 1.4609375 -2.8164062
0.20568848 1.4609375 -2.8164062
0.21899414 1.4619141 -2.8183594
0.23217773 1.4619141 -2.8183594
0.2454834 1.4628906 -2.8203125
0.25878906 1.4628906 -2.8203125
0.27197266 1.4638672 -2.8222656
0.28540039 1.4648438 -2.8242188
0.29882812 1.4658203 -2.8261719
0.31225586 1.4677734 -2.828125
0.32568359 1.46875 -2.8320312
0.33959961 1.4707031 -2.8359375
0.35327148 1.4726562 -2.8398438
0.3671875 1.4755859 -2.84375
0.38134766 1.4785156 -2.8496094
0.39526367 1.4804688 -2.8554688
0.40942383 1.4833984 -2.859375
0.4230957 1.4853516 -2.8632812
0.43701172 1.4863281 -2.8652344
0.45019531 1.4853516 -2.8632812
0.46337891 1.4853516 -2.8632812
0.47631836 1.4833984 -2.859375
0.48925781 1.4824219 -2.8574219
0.50244141 1.4814453 -2.8574219
0.51611328 1.4824219 -2.8574219
0.52978516 1.4833984 -2.859375
0.54345703 1.4853516 -2.8632812
0.55761719 1.4873047 -2.8671875
0.57177734 1.4882812 -2.8710938
0.5859375 1.4902344 -2.8730469
0.59960938 1.4912109 -2.875
0.61376953 1.4931641 -2.8789062
0.62792969 1.4951172 -2.8828125
0.64257812 1.4970703 -2.8867188
0.65722656 1.5 -2.8925781
0.671875 1.5019531 -2.8964844
0.68603516 1.5039062 -2.9003906
0.70019531 1.5048828 -2.9023438
0.71386719 1.5048828 -2.9023438
0.72705078 1.5039062 -2.9003906
0.73974609 1.5029297 -2.8984375
0.75244141 1.5019531 -2.8945312
0.765625 1.5009766 -2.8925781
0.77880859 1.5 -2.890625
0.79199219 1.5 -2.890625
0.80566406 1.5 -2.890625
0.81982422 1.5009766 -2.8925781
0.83398438 1.5019531 -2.8945312
0.84814453 1.5029297 -2.8984375
0.86279297 1.5048828 -2.9003906
0.87744141 1.5068359 -2.90625
0.89257812 1.5087891 -2.9101562
0.90771484 1.5117188 -2.9140625
0.92285156 1.5146484 -2.9199219
0.93847656 1.5175781 -2.9257812
0.95410156 1.5205078 -2.9316406
0.96972656 1.5234375 -2.9375
0.98486328 1.5263672 -2.9433594
1 1.5283203 -2.9472656
1.015625 1.53125 -2.9511719
1.0302734 1.5322266 -2.9550781
1.0449219 1.5341797 -2.9570312
1.0595703 1.5351562 -2.9589844
1.0742188 1.5361328 -2.9609375
1.0888672 1.5361328 -2.9628906
1.1025391 1.5361328 -2.9628906
1.1152344 1.5351562 -2.9609375
1.1279297 1.5341797 -2.9570312
1.1396484 1.53125 -2.953125
1.1523438 1.5292969 -2.9492188
1.1640625 1.5263672 -2.9433594
1.1767578 1.5253906 -2.9414062
1.1894531 1.5244141 -2.9394531
1.2041016 1.5253906 -2.9414062
1.2197266 1.5273438 -2.9453125
1.2363281 1.53125 -2.9511719
1.2529297 1.5351562 -2.9589844
1.2705078 1.5390625 -2.9667969
1.2871094 1.5429688 -2.9746094
1.3046875 1.546875 -2.9824219
1.3212891 1.5498047 -2.9882812
1.3369141 1.5517578 -2.9921875
1.3525391 1.5537109 -2.9941406
1.3662109 1.5537109 -2.9941406
1.3798828 1.5527344 -2.9941406
1.3925781 1.5507812 -2.9902344
1.4042969 1.5488281 -2.9863281
1.4169922 1.546875 -2.9824219
1.4287109 1.5458984 -2.9804688
1.4423828 1.5449219 -2.9785156
1.4570312 1.5458984 -2.9804688
1.4716797 1.546875 -2.9824219
1.4873047 1.5488281 -2.9863281
1.5039062 1.5507812 -2.9902344
1.5195312 1.5527344 -2.9941406
1.5361328 1.5546875 -2.9980469
1.5517578 1.5566406 -3.0019531
1.5673828 1.5585938 -3.0039062
1.5839844 1.5605469 -3.0078125
1.5996094 1.5625 -3.0117188
1.6142578 1.5634766 -3.0136719
1.6298828 1.5644531 -3.015625
1.6445312 1.5654297 -3.0175781
1.6591797 1.5654297 -3.0195312
1.6738281 1.5664062 -3.0195312
1.6884766 1.5664062 -3.0214844
1.703125 1.5664062 -3.0214844
1.7177734 1.5673828 -3.0214844
1.7324219 1.5673828 -3.0234375
1.7470703 1.5683594 -3.0234375
1.7626953 1.5693359 -3.0253906
1.7773438 1.5703125 -3.0273438
1.7929688 1.5712891 -3.0292969
1.8085938 1.5732422 -3.0332031
1.8251953 1.5742188 -3.0351562
1.8408203 1.5761719 -3.0390625
1.8574219 1.578125 -3.0410156
1.8730469 1.5791016 -3.0449219
1.8896484 1.5810547 -3.0488281
1.9052734 1.5820312 -3.0507812
1.921875 1.5839844 -3.0546875
1.9375 1.5849609 -3.0566406
1.953125 1.5859375 -3.0585938
1.9677734 1.5869141 -3.0585938
1.9824219 1.5869141 -3.0605469
1.9970703 1.5878906 -3.0605469
2.0117188 1.5878906 -3.0625
2.0273438 1.5888672 -3.0644531
2.0449219 1.5908203 -3.0664062
2.0605469 1.5927734 -3.0703125
2.0800781 1.5957031 -3.0761719
2.0976562 1.5996094 -3.0839844
2.1171875 1.6025391 -3.0898438
2.1367188 1.6054688 -3.0957031
2.1542969 1.6083984 -3.1015625
2.1699219 1.609375 -3.1035156
2.1855469 1.6103516 -3.1035156
2.1972656 1.609375 -3.1015625
2.2109375 1.6083984 -3.0996094
2.2226562 1.6064453 -3.0976562
2.2363281 1.6054688 -3.0957031
2.25 1.6044922 -3.09375
2.2636719 1.6035156 -3.0917969
2.2792969 1.6044922 -3.09375
2.2949219 1.6064453 -3.0976562
2.3144531 1.609375 -3.1015625
2.3339844 1.6123047 -3.109375
2.3535156 1.6162109 -3.1152344
2.3730469 1.6191406 -3.1230469
2.3925781 1.6220703 -3.1289062
2.4101562 1.625 -3.1328125
2.4277344 1.6269531 -3.1367188
2.4453125 1.6289062 -3.140625
2.4628906 1.6308594 -3.1445312
2.4804688 1.6328125 -3.1484375
2.4980469 1.6347656 -3.1523438
2.5175781 1.6367188 -3.15625
2.5351562 1.6396484 -3.1621094
2.5546875 1.6425781 -3.1679688
2.5742188 1.6455078 -3.1738281
2.59375 1.6484375 -3.1777344
2.6132812 1.6513672 -3.1835938
2.6308594 1.6533203 -3.1875
2.6503906 1.65625 -3.1933594
2.6699219 1.6591797 -3.1992188
2.6894531 1.6621094 -3.2050781
2.7109375 1.6650391 -3.2109375
2.7304688 1.6689453 -3.2167969
2.75 1.671875 -3.2226562
2.7695312 1.6738281 -3.2285156
2.7871094 1.6757812 -3.2304688
2.8046875 1.6767578 -3.2324219
2.8203125 1.6777344 -3.234375
2.8359375 1.6777344 -3.234375
2.8515625 1.6777344 -3.2363281
2.8671875 1.6777344 -3.2363281
2.8828125 1.6777344 -3.2363281
2.8964844 1.6777344 -3.234375
2.9140625 1.6787109 -3.2363281
2.9277344 1.6777344 -3.2363281
2.9414062 1.6767578 -3.234375
2.953125 1.6757812 -3.2304688
2.9667969 1.6748047 -3.2285156
2.9785156 1.6728516 -3.2265625
2.9941406 1.6738281 -3.2265625
3.015625 1.6767578 -3.2324219
3.0371094 1.6806641 -3.2402344
3.0566406 1.6826172 -3.2441406
3.0820312 1.6884766 -3.2539062
3.0976562 1.6884766 -3.2558594
3.1308594 1.6982422 -3.2753906
3.1542969 1.703125 -3.2832031
3.1738281 1.7050781 -3.2871094
3.1894531 1.7050781 -3.2871094
3.2070312 1.7060547 -3.2890625
3.2246094 1.7070312 -3.2910156
3.2421875 1.7080078 -3.2929688
3.3164062 1.7392578 -3.3535156
-2.2363281 1.2587891 -2.4492188
-2.2246094 1.2587891 -2.4492188
-2.2148438 1.2597656 -2.4511719
-2.2050781 1.2607422 -2.453125
-2.1953125 1.2617188 -2.4550781
-2.1875 1.2636719 -2.4589844
-2.1777344 1.265625 -2.4609375
-2.1679688 1.2666016 -2.4628906
-2.1582031 1.2666016 -2.4648438
-2.1484375 1.2675781 -2.4648438
-2.1367188 1.2675781 -2.4667969
-2.1269531 1.2685547 -2.4667969
-2.1152344 1.2685547 -2.46875
-2.1054688 1.2695312 -2.4707031
-2.0957031 1.2705078 -2.4726562
-2.0859375 1.2724609 -2.4765625
-2.078125 1.2744141 -2.4785156
-2.0683594 1.2753906 -2.4824219
-2.0585938 1.2773438 -2.484375
-2.0488281 1.2783203 -2.4863281
-2.0390625 1.2792969 -2.4882812
-2.0292969 1.2792969 -2.4902344
-2.0175781 1.2802734 -2.4902344
-2.0078125 1.2802734 -2.4921875
-1.9970703 1.28125 -2.4921875
-1.9863281 1.2822266 -2.4941406
-1.9755859 1.2832031 -2.4960938
-1.9658203 1.2841797 -2.4980469
-1.9560547 1.2851562 -2.5
-1.9472656 1.2871094 -2.5039062
-1.9384766 1.2890625 -2.5078125
-1.9296875 1.2910156 -2.5117188
-1.9208984 1.2929688 -2.515625
-1.9121094 1.2949219 -2.5195312
-1.9023438 1.2958984 -2.5214844
-1.8925781 1.2978516 -2.5253906
-1.8828125 1.2988281 -2.5273438
-1.8720703 1.2998047 -2.5292969
-1.8613281 1.3007812 -2.53125
-1.8515625 1.3017578 -2.5332031
-1.8398438 1.3027344 -2.5332031
-1.8300781 1.3037109 -2.5351562
-1.8193359 1.3046875 -2.5371094
-1.8085938 1.3046875 -2.5390625
-1.7978516 1.3056641 -2.5410156
-1.7861328 1.3066406 -2.5410156
-1.7753906 1.3066406 -2.5429688
-1.7646484 1.3076172 -2.5449219
-1.7539062 1.3085938 -2.546875
-1.7431641 1.3095703 -2.5488281
-1.7324219 1.3105469 -2.5507812
-1.7216797 1.3115234 -2.5507812
-1.7109375 1.3125 -2.5527344
-1.6992188 1.3125 -2.5546875
-1.6884766 1.3134766 -2.5546875
-1.6767578 1.3134766 -2.5546875
-1.6640625 1.3134766 -2.5546875
-1.6513672 1.3125 -2.5546875
-1.6386719 1.3115234 -2.5527344
-1.6259766 1.3115234 -2.5507812
-1.6132812 1.3105469 -2.5507812
-1.6005859 1.3105469 -2.5488281
-1.5888672 1.3105469 -2.5488281
-1.578125 1.3105469 -2.5507812
-1.5673828 1.3115234 -2.5527344
-1.5566406 1.3134766 -2.5546875
-1.546875 1.3144531 -2.5585938
-1.5371094 1.3164062 -2.5625
-1.5283203 1.3193359 -2.5664062
-1.5185547 1.3212891 -2.5703125
-1.5097656 1.3242188 -2.5761719
-1.5 1.3261719 -2.5800781
-1.4902344 1.328125 -2.5839844
-1.4794922 1.3300781 -2.5878906
-1.46875 1.3310547 -2.5898438
-1.4580078 1.3320312 -2.5917969
-1.4462891 1.3320312 -2.5917969
-1.4335938 1.3320312 -2.5917969
-1.421875 1.3320312 -2.5917969
-1.4082031 1.3310547 -2.5898438
-1.3945312 1.3300781 -2.5878906
-1.3818359 1.3291016 -2.5859375
-1.3681641 1.3271484 -2.5820312
-1.3554688 1.3261719 -2.5800781
-1.3427734 1.3251953 -2.5800781
-1.3300781 1.3251953 -2.5800781
-1.3193359 1.3261719 -2.5800781
-1.3076172 1.3271484 -2.5820312
-1.296875 1.328125 -2.5839844
-1.2861328 1.3300781 -2.5878906
-1.2753906 1.3310547 -2.5898438
-1.265625 1.3330078 -2.59375
-1.2548828 1.3349609 -2.5976562
-1.2441406 1.3369141 -2.6015625
-1.2333984 1.3388672 -2.6035156
-1.2226562 1.3398438 -2.6054688
-1.2119141 1.3408203 -2.609375
-1.2001953 1.3417969 -2.609375
-1.1884766 1.3427734 -2.6113281
-1.1767578 1.3427734 -2.6132812
-1.1660156 1.34375 -2.6152344
-1.1542969 1.3457031 -2.6171875
-1.1435547 1.3466797 -2.6210938
-1.1328125 1.3486328 -2.625
-1.1220703 1.3505859 -2.6289062
-1.1123047 1.3535156 -2.6328125
-1.1015625 1.3564453 -2.6386719
-1.0908203 1.3583984 -2.6425781
-1.0800781 1.359375 -2.6445312
-1.0683594 1.3603516 -2.6464844
-1.0566406 1.3613281 -2.6484375
-1.0439453 1.3613281 -2.6484375
-1.03125 1.3603516 -2.6464844
-1.0185547 1.359375 -2.6445312
-1.0048828 1.3583984 -2.6425781
-0.99169922 1.3564453 -2.6386719
-0.97802734 1.3554688 -2.6367188
-0.96484375 1.3544922 -2.6347656
-0.95214844 1.3535156 -2.6328125
-0.93994141 1.3535156 -2.6328125
-0.92822266 1.3544922 -2.6347656
-0.91650391 1.3554688 -2.6367188
-0.90527344 1.3564453 -2.6386719
-0.89404297 1.3583984 -2.6425781
-0.8828125 1.3603516 -2.6464844
-0.87158203 1.3623047 -2.6503906
-0.86035156 1.3642578 -2.6542969
-0.84912109 1.3652344 -2.65625
-0.83740234 1.3671875 -2.6601562
-0.82617188 1.3681641 -2.6621094
-0.81396484 1.3691406 -2.6640625
-0.80224609 1.3701172 -2.6660156
-0.79052734 1.3710938 -2.6679688
-0.77832031 1.3730469 -2.6699219
-0.76611328 1.3730469 -2.671875
-0.75390625 1.3730469 -2.671875
-0.74121094 1.3730469 -2.671875
-0.72900391 1.3740234 -2.671875
-0.71679688 1.3740234 -2.6738281
-0.70507812 1.375 -2.6757812
-0.69335938 1.3769531 -2.6777344
-0.68164062 1.3789062 -2.6816406
-0.67041016 1.3818359 -2.6875
-0.65869141 1.3837891 -2.6914062
-0.64697266 1.3857422 -2.6953125
-0.63525391 1.3867188 -2.6972656
-0.62255859 1.3867188 -2.6972656
-0.60986328 1.3867188 -2.6972656
-0.59667969 1.3857422 -2.6953125
-0.58398438 1.3847656 -2.6953125
-0.57128906 1.3847656 -2.6953125
-0.55859375 1.3847656 -2.6953125
-0.54638672 1.3857422 -2.6953125
-0.53417969 1.3867188 -2.6992188
-0.52197266 1.3876953 -2.7011719
-0.51025391 1.3896484 -2.7050781
-0.49853516 1.3925781 -2.7089844
-0.48632812 1.3935547 -2.7109375
-0.47436523 1.3955078 -2.7148438
-0.46240234 1.3974609 -2.71875
-0.45019531 1.3994141 -2.7226562
-0.43823242 1.4023438 -2.7285156
-0.42602539 1.4042969 -2.7324219
-0.41381836 1.4052734 -2.734375
-0.40161133 1.4072266 -2.7382812
-0.38916016 1.4091797 -2.7402344
-0.37646484 1.4101562 -2.7421875
-0.36401367 1.4111328 -2.7441406
-0.35107422 1.4111328 -2.7441406
-0.33837891 1.4111328 -2.7441406
-0.32543945 1.4111328 -2.7441406
-0.31274414 1.4111328 -2.7460938
-0.30004883 1.4121094 -2.7480469
-0.28759766 1.4140625 -2.75
-0.27514648 1.4150391 -2.7539062
-0.26269531 1.4179688 -2.7597656
-0.25 1.4199219 -2.7617188
-0.23754883 1.421875 -2.765625
-0.22485352 1.4228516 -2.7695312
-0.21203613 1.4238281 -2.7714844
-0.19934082 1.4257812 -2.7734375
-0.18652344 1.4267578 -2.7753906
-0.17358398 1.4277344 -2.7773438
-0.1607666 1.4287109 -2.7792969
-0.14782715 1.4287109 -2.7792969
-0.13476562 1.4296875 -2.78125
-0.12188721 1.4296875 -2.78125
-0.10894775 1.4306641 -2.7832031
-0.095947266 1.4306641 -2.7832031
-0.082946777 1.4306641 -2.7832031
-0.069946289 1.4306641 -2.7832031
-0.056915283 1.4306641 -2.7832031
-0.043884277 1.4296875 -2.78125
-0.03086853 1.4296875 -2.78125
-0.017852783 1.4287109 -2.7792969
-0.0048675537 1.4277344 -2.7773438
0.0081100464 1.4277344 -2.7773438
0.021087646 1.4277344 -2.7773438
0.034088135 1.4277344 -2.7773438
0.047119141 1.4296875 -2.78125
0.060180664 1.4306641 -2.7832031
0.073303223 1.4335938 -2.7890625
0.086486816 1.4365234 -2.7929688
0.09979248 1.4394531 -2.8007812
0.11309814 1.4414062 -2.8046875
0.12634277 1.4433594 -2.8085938
0.13964844 1.4453125 -2.8125
0.15283203 1.4462891 -2.8144531
0.1661377 1.4472656 -2.8144531
0.17932129 1.4472656 -2.8164062
0.19250488 1.4472656 -2.8164062
0.20568848 1.4472656 -2.8164062
0.21887207 1.4482422 -2.8164062
0.23217773 1.4482422 -2.8183594
0.24536133 1.4492188 -2.8183594
0.25854492 1.4492188 -2.8203125
0.27197266 1.4501953 -2.8222656
0.28540039 1.4511719 -2.8222656
0.29858398 1.4521484 -2.8242188
0.31201172 1.4521484 -2.8261719
0.32543945 1.453125 -2.828125
0.33911133 1.4550781 -2.8320312
0.3527832 1.4570312 -2.8359375
0.36669922 1.4599609 -2.8398438
0.38061523 1.4619141 -2.8457031
0.39453125 1.4648438 -2.8496094
0.40844727 1.4667969 -2.8535156
0.42236328 1.46875 -2.8574219
0.43603516 1.4697266 -2.859375
0.44921875 1.46875 -2.8574219
0.46240234 1.46875 -2.8574219
0.4753418 1.4667969 -2.8535156
0.48828125 1.4658203 -2.8515625
0.50146484 1.4658203 -2.8515625
0.51464844 1.4658203 -2.8515625
0.52832031 1.4667969 -2.8535156
0.54248047 1.46875 -2.8574219
0.55664062 1.4707031 -2.8613281
0.57080078 1.4726562 -2.8652344
0.58447266 1.4736328 -2.8671875
0.59863281 1.4755859 -2.8710938
0.61230469 1.4765625 -2.8730469
0.62646484 1.4785156 -2.8769531
0.64111328 1.4804688 -2.8808594
0.65527344 1.4824219 -2.8847656
0.66992188 1.484375 -2.8886719
0.68408203 1.4863281 -2.890625
0.69775391 1.4863281 -2.8925781
0.71142578 1.4863281 -2.8925781
0.72460938 1.4863281 -2.890625
0.73730469 1.484375 -2.8886719
0.75048828 1.4833984 -2.8867188
0.76318359 1.4824219 -2.8828125
0.77636719 1.4814453 -2.8828125
0.78955078 1.4814453 -2.8828125
0.80371094 1.4824219 -2.8828125
0.81738281 1.4833984 -2.8847656
0.83203125 1.484375 -2.8886719
0.84667969 1.4863281 -2.8925781
0.86132812 1.4892578 -2.8964844
0.87695312 1.4921875 -2.9042969
0.89257812 1.4960938 -2.9101562
0.90869141 1.5 -2.9179688
