# .PCD v0.7 - Point Cloud Data file format
VERSION 0.7
FIELDS x y z
SIZE 4 4 4
TYPE F F F
COUNT 1 1 1
WIDTH 1345
HEIGHT 1
VIEWPOINT 0 0 0 1 0 0 0
POINTS 1345
DATA ascii
0.1673584 0.02935791 -0.57177734
0.16955566 0.029251099 -0.56982422
0.17150879 0.029144287 -0.56787109
0.17333984 0.028991699 -0.56494141
0.17529297 0.028884888 -0.56298828
0.17724609 0.028793335 -0.56103516
0.17895508 0.028640747 -0.55810547
0.18054199 0.0284729 -0.5546875
0.18212891 0.028320312 -0.55175781
0.18371582 0.028167725 -0.54882812
0.18530273 0.028015137 -0.54589844
0.18713379 0.027908325 -0.54394531
0.18896484 0.027816772 -0.54199219
0.19116211 0.027755737 -0.54101562
0.19335938 0.027709961 -0.54003906
0.19555664 0.027648926 -0.5390625
0.19799805 0.027648926 -0.5390625
0.20092773 0.027709961 -0.54003906
0.20385742 0.027755737 -0.54101562
0.20678711 0.027816772 -0.54199219
0.2097168 0.027862549 -0.54296875
0.2130127 0.02796936 -0.54492188
0.21630859 0.028060913 -0.546875
0.21972656 0.028167725 -0.54882812
0.22302246 0.028274536 -0.55078125
0.22644043 0.028381348 -0.55273438
0.2298584 0.0284729 -0.5546875
0.23327637 0.028579712 -0.55712891
0.23718262 0.0287323 -0.56005859
0.24072266 0.028839111 -0.56201172
0.24414062 0.028945923 -0.56396484
0.24768066 0.029052734 -0.56591797
0.2512207 0.029144287 -0.56787109
0.1541748 0.027664185 -0.59326172
0.15612793 0.027526855 -0.58984375
0.15808105 0.027389526 -0.58691406
0.16027832 0.027282715 -0.58496094
0.16223145 0.027145386 -0.58203125
0.1640625 0.027008057 -0.57910156
0.16589355 0.026870728 -0.57617188
0.16772461 0.026733398 -0.57275391
0.1697998 0.026626587 -0.57080078
0.17150879 0.026489258 -0.56787109
0.17333984 0.026351929 -0.56494141
0.17529297 0.026260376 -0.56298828
0.17700195 0.026123047 -0.56005859
0.17858887 0.025970459 -0.55712891
0.18054199 0.025878906 -0.5546875
0.18212891 0.025741577 -0.55175781
0.18371582 0.025604248 -0.54882812
0.18530273 0.025466919 -0.54589844
0.18713379 0.025375366 -0.54394531
0.18896484 0.025268555 -0.54199219
0.19116211 0.025222778 -0.54101562
0.19335938 0.025177002 -0.54003906
0.19555664 0.025131226 -0.5390625
0.19799805 0.025131226 -0.5390625
0.20092773 0.025177002 -0.54003906
0.20385742 0.025222778 -0.54101562
0.20678711 0.025268555 -0.54199219
0.2097168 0.02532959 -0.54296875
0.2130127 0.025421143 -0.54492188
0.21630859 0.025512695 -0.546875
0.21972656 0.025604248 -0.54882812
0.22302246 0.025695801 -0.55078125
0.22644043 0.025787354 -0.55273438
0.2298584 0.025878906 -0.5546875
0.23327637 0.025970459 -0.55712891
0.23718262 0.026123047 -0.56005859
0.24072266 0.0262146 -0.56201172
0.24414062 0.026306152 -0.56396484
0.24768066 0.026397705 -0.56591797
0.2512207 0.026489258 -0.56787109
0.25463867 0.026580811 -0.56982422
0.15246582 0.025054932 -0.59716797
0.1541748 0.024887085 -0.59326172
0.15612793 0.024765015 -0.58984375
0.1583252 0.024673462 -0.58789062
0.16027832 0.024551392 -0.58496094
0.16223145 0.024429321 -0.58203125
0.1640625 0.024307251 -0.57910156
0.16589355 0.024169922 -0.57617188
0.16772461 0.024047852 -0.57275391
0.1697998 0.023956299 -0.57080078
0.17150879 0.023834229 -0.56787109
0.17333984 0.023712158 -0.56494141
0.17529297 0.023620605 -0.56298828
0.17700195 0.023498535 -0.56005859
0.17858887 0.023376465 -0.55712891
0.18029785 0.023254395 -0.55371094
0.18212891 0.023162842 -0.55175781
0.18371582 0.023040771 -0.54882812
0.18530273 0.022903442 -0.54589844
0.18713379 0.022827148 -0.54394531
0.18896484 0.022735596 -0.54199219
0.19116211 0.022705078 -0.54101562
0.19335938 0.022659302 -0.54003906
0.19592285 0.022659302 -0.54003906
0.19836426 0.022659302 -0.54003906
0.20092773 0.022659302 -0.54003906
0.20385742 0.022705078 -0.54101562
0.20678711 0.022735596 -0.54199219
0.2097168 0.022781372 -0.54296875
0.2130127 0.022872925 -0.54492188
0.21630859 0.022949219 -0.546875
0.21972656 0.023040771 -0.54882812
0.22302246 0.023117065 -0.55078125
0.22644043 0.023208618 -0.55273438
0.2298584 0.023284912 -0.5546875
0.23327637 0.023376465 -0.55712891
0.23718262 0.023498535 -0.56005859
0.24072266 0.023590088 -0.56201172
0.24414062 0.023666382 -0.56396484
0.24768066 0.023757935 -0.56591797
0.2512207 0.023834229 -0.56787109
0.25463867 0.023925781 -0.56982422
0.25830078 0.024002075 -0.57177734
0.1541748 0.022125244 -0.59326172
0.15637207 0.02204895 -0.59130859
0.1583252 0.02192688 -0.58789062
0.16027832 0.021820068 -0.58496094
0.16247559 0.021743774 -0.58300781
0.16430664 0.021636963 -0.58007812
0.1661377 0.021514893 -0.57714844
0.16796875 0.021408081 -0.57421875
0.1697998 0.02130127 -0.57080078
0.17150879 0.021179199 -0.56787109
0.17333984 0.021072388 -0.56494141
0.17504883 0.020950317 -0.56201172
0.17700195 0.020889282 -0.56005859
0.17858887 0.020767212 -0.55712891
0.18029785 0.0206604 -0.55371094
0.18188477 0.02053833 -0.55078125
0.18371582 0.020477295 -0.54882812
0.18530273 0.020355225 -0.54589844
0.18713379 0.020278931 -0.54394531
0.18896484 0.020202637 -0.54199219
0.19116211 0.020172119 -0.54101562
0.19335938 0.020126343 -0.54003906
0.19592285 0.020126343 -0.54003906
0.19836426 0.020126343 -0.54003906
0.20092773 0.020126343 -0.54003906
0.20385742 0.020172119 -0.54101562
0.20678711 0.020202637 -0.54199219
0.2097168 0.020248413 -0.54296875
0.2130127 0.020324707 -0.54492188
0.21630859 0.020401001 -0.546875
0.21972656 0.020477295 -0.54882812
0.22302246 0.02053833 -0.55078125
0.22644043 0.020614624 -0.55273438
0.2298584 0.020690918 -0.5546875
0.23376465 0.020812988 -0.55810547
0.23718262 0.020889282 -0.56005859
0.24072266 0.020950317 -0.56201172
0.24414062 0.021026611 -0.56396484
0.24768066 0.021102905 -0.56591797
0.2512207 0.021179199 -0.56787109
0.25463867 0.021255493 -0.56982422
0.25830078 0.021331787 -0.57177734
0.15063477 0.019607544 -0.60107422
0.15270996 0.019515991 -0.59814453
0.15441895 0.019378662 -0.59423828
0.15637207 0.019287109 -0.59130859
0.1583252 0.019180298 -0.58789062
0.16052246 0.019119263 -0.5859375
0.16247559 0.019012451 -0.58300781
0.16430664 0.018920898 -0.58007812
0.1661377 0.018814087 -0.57714844
0.16796875 0.018722534 -0.57421875
0.1697998 0.018630981 -0.57080078
0.17150879 0.01852417 -0.56787109
0.17333984 0.018432617 -0.56494141
0.17504883 0.018325806 -0.56201172
0.17700195 0.018264771 -0.56005859
0.17858887 0.018173218 -0.55712891
0.18029785 0.018066406 -0.55371094
0.18212891 0.018005371 -0.55175781
0.18371582 0.01789856 -0.54882812
0.18566895 0.017837524 -0.546875
0.18713379 0.017745972 -0.54394531
0.18933105 0.017700195 -0.54296875
0.19116211 0.01763916 -0.54101562
0.19335938 0.017608643 -0.54003906
0.19592285 0.017608643 -0.54003906
0.19836426 0.017608643 -0.54003906
0.20092773 0.017608643 -0.54003906
0.20385742 0.01763916 -0.54101562
0.20678711 0.017669678 -0.54199219
0.2097168 0.017700195 -0.54296875
0.2130127 0.017776489 -0.54492188
0.21630859 0.017837524 -0.546875
0.21972656 0.01789856 -0.54882812
0.22302246 0.017974854 -0.55078125
0.22644043 0.018035889 -0.55273438
0.23034668 0.018127441 -0.55615234
0.23376465 0.018203735 -0.55810547
0.23718262 0.018264771 -0.56005859
0.24072266 0.018325806 -0.56201172
0.24462891 0.018432617 -0.56494141
0.24816895 0.018493652 -0.56689453
0.25170898 0.018554688 -0.56884766
0.25463867 0.018585205 -0.56982422
0.25830078 0.018661499 -0.57177734
0.26196289 0.018722534 -0.57421875
0.14855957 0.016876221 -0.60400391
0.15063477 0.016799927 -0.60107422
0.15270996 0.016708374 -0.59814453
0.15441895 0.016601562 -0.59423828
0.15673828 0.016540527 -0.59228516
0.15869141 0.016464233 -0.58886719
0.16052246 0.016372681 -0.5859375
0.16247559 0.016296387 -0.58300781
0.16430664 0.016204834 -0.58007812
0.1661377 0.01612854 -0.57714844
0.16796875 0.016036987 -0.57421875
0.1697998 0.015960693 -0.57080078
0.17150879 0.015869141 -0.56787109
0.17333984 0.015792847 -0.56494141
0.17504883 0.015701294 -0.56201172
0.17700195 0.015640259 -0.56005859
0.17858887 0.015563965 -0.55712891
0.18029785 0.015480042 -0.55371094
0.18212891 0.015426636 -0.55175781
0.18371582 0.015342712 -0.54882812
0.18566895 0.015281677 -0.546875
0.1875 0.015228271 -0.54492188
0.18933105 0.015174866 -0.54296875
0.19116211 0.015113831 -0.54101562
0.19372559 0.015113831 -0.54101562
0.19592285 0.015090942 -0.54003906
0.19836426 0.015090942 -0.54003906
0.20092773 0.015090942 -0.54003906
0.20385742 0.015113831 -0.54101562
0.20678711 0.015144348 -0.54199219
0.2097168 0.015174866 -0.54296875
0.2130127 0.015228271 -0.54492188
0.21630859 0.015281677 -0.546875
0.21972656 0.015342712 -0.54882812
0.22302246 0.015396118 -0.55078125
0.22644043 0.015457153 -0.55273438
0.23034668 0.015541077 -0.55615234
0.23376465 0.015594482 -0.55810547
0.2376709 0.015670776 -0.56103516
0.24108887 0.015731812 -0.56298828
0.24462891 0.015792847 -0.56494141
0.24816895 0.015838623 -0.56689453
0.25170898 0.015899658 -0.56884766
0.25512695 0.015960693 -0.57080078
0.25878906 0.01600647 -0.57275391
0.26196289 0.016036987 -0.57421875
0.14855957 0.014060974 -0.60400391
0.15063477 0.01399231 -0.60107422
0.15270996 0.013923645 -0.59814453
0.15466309 0.013847351 -0.59521484
0.15673828 0.013778687 -0.59228516
0.15869141 0.013710022 -0.58886719
0.16052246 0.013641357 -0.5859375
0.16247559 0.013572693 -0.58300781
0.16430664 0.013496399 -0.58007812
0.1661377 0.013427734 -0.57714844
0.16796875 0.01335907 -0.57421875
0.1697998 0.013290405 -0.57080078
0.17150879 0.013221741 -0.56787109
0.17333984 0.013145447 -0.56494141
0.17504883 0.013076782 -0.56201172
0.17700195 0.013031006 -0.56005859
0.17858887 0.012962341 -0.55712891
0.18029785 0.012893677 -0.55371094
0.18212891 0.0128479 -0.55175781
0.18371582 0.012771606 -0.54882812
0.18566895 0.01272583 -0.546875
0.1875 0.012680054 -0.54492188
0.18933105 0.012634277 -0.54296875
0.19152832 0.012611389 -0.54199219
0.19372559 0.012588501 -0.54101562
0.19592285 0.012565613 -0.54003906
0.19836426 0.012565613 -0.54003906
0.20129395 0.012588501 -0.54101562
0.20385742 0.012588501 -0.54101562
0.20678711 0.012611389 -0.54199219
0.21008301 0.012657166 -0.54394531
0.2130127 0.012680054 -0.54492188
0.21630859 0.01272583 -0.546875
0.21972656 0.012771606 -0.54882812
0.22302246 0.012825012 -0.55078125
0.22692871 0.012893677 -0.55371094
0.23034668 0.012939453 -0.55615234
0.23376465 0.012985229 -0.55810547
0.2376709 0.013053894 -0.56103516
0.24108887 0.01309967 -0.56298828
0.24462891 0.013145447 -0.56494141
0.24816895 0.013198853 -0.56689453
0.25170898 0.013244629 -0.56884766
0.25512695 0.013290405 -0.57080078
0.25878906 0.013336182 -0.57275391
0.26245117 0.013381958 -0.57519531
0.26538086 0.013404846 -0.57617188
0.14624023 0.011276245 -0.60595703
0.14855957 0.011238098 -0.60400391
0.15063477 0.011177063 -0.60107422
0.15270996 0.011123657 -0.59814453
0.15466309 0.011070251 -0.59521484
0.15673828 0.011009216 -0.59228516
0.15869141 0.010955811 -0.58886719
0.16052246 0.010902405 -0.5859375
0.16247559 0.01084137 -0.58300781
0.16430664 0.010787964 -0.58007812
0.1661377 0.010734558 -0.57714844
0.16796875 0.010673523 -0.57421875
0.1697998 0.010620117 -0.57080078
0.17150879 0.010566711 -0.56787109
0.17333984 0.010505676 -0.56494141
0.17529297 0.010467529 -0.56298828
0.17700195 0.010414124 -0.56005859
0.17858887 0.010360718 -0.55712891
0.18054199 0.010322571 -0.5546875
0.18212891 0.010261536 -0.55175781
0.18408203 0.010231018 -0.54980469
0.18566895 0.010169983 -0.546875
0.1875 0.010131836 -0.54492188
0.18933105 0.010093689 -0.54296875
0.19152832 0.01007843 -0.54199219
0.19372559 0.010063171 -0.54101562
0.19628906 0.010063171 -0.54101562
0.19873047 0.010063171 -0.54101562
0.20129395 0.010063171 -0.54101562
0.20422363 0.01007843 -0.54199219
0.20715332 0.010093689 -0.54296875
0.21008301 0.010116577 -0.54394531
0.21337891 0.010154724 -0.54589844
0.2166748 0.010192871 -0.54785156
0.22009277 0.010231018 -0.54980469
0.22351074 0.010261536 -0.55175781
0.22692871 0.010299683 -0.55371094
0.23034668 0.01033783 -0.55615234
0.23413086 0.010398865 -0.55908203
0.2376709 0.010429382 -0.56103516
0.24108887 0.010467529 -0.56298828
0.24462891 0.010505676 -0.56494141
0.24816895 0.010543823 -0.56689453
0.25170898 0.01058197 -0.56884766
0.25512695 0.010620117 -0.57080078
0.25878906 0.010658264 -0.57275391
0.26245117 0.010696411 -0.57519531
0.26538086 0.01071167 -0.57617188
0.14624023 0.0084381104 -0.60595703
0.14855957 0.0084075928 -0.60400391
0.15063477 0.0083694458 -0.60107422
0.15270996 0.0083236694 -0.59814453
0.15466309 0.0082855225 -0.59521484
0.15673828 0.0082397461 -0.59228516
0.15869141 0.0082015991 -0.58886719
0.16052246 0.0081558228 -0.5859375
0.16247559 0.0081176758 -0.58300781
0.16430664 0.0080795288 -0.58007812
0.1661377 0.0080337524 -0.57714844
0.16796875 0.0079956055 -0.57421875
0.1697998 0.0079498291 -0.57080078
0.17150879 0.0079116821 -0.56787109
0.17358398 0.0078811646 -0.56591797
0.17529297 0.0078353882 -0.56298828
0.17700195 0.0077972412 -0.56005859
0.17858887 0.0077552795 -0.55712891
0.18054199 0.0077285767 -0.5546875
0.18212891 0.007686615 -0.55175781
0.18408203 0.0076599121 -0.54980469
0.18566895 0.0076179504 -0.546875
0.1875 0.0075874329 -0.54492188
0.18933105 0.00756073 -0.54296875
0.19152832 0.0075454712 -0.54199219
0.19372559 0.0075340271 -0.54101562
0.19628906 0.0075340271 -0.54101562
0.19873047 0.0075340271 -0.54101562
0.20129395 0.0075340271 -0.54101562
0.20422363 0.0075454712 -0.54199219
0.20715332 0.00756073 -0.54296875
0.21008301 0.0075759888 -0.54394531
0.21337891 0.0076026917 -0.54589844
0.2166748 0.0076293945 -0.54785156
0.22009277 0.0076599121 -0.54980469
0.22351074 0.007686615 -0.55175781
0.22692871 0.0077133179 -0.55371094
0.23071289 0.0077552795 -0.55712891
0.23413086 0.0077857971 -0.55908203
0.2376709 0.0078125 -0.56103516
0.24108887 0.0078353882 -0.56298828
0.24462891 0.0078659058 -0.56494141
0.24816895 0.0078964233 -0.56689453
0.25170898 0.0079193115 -0.56884766
0.25512695 0.0079498291 -0.57080078
0.25878906 0.0079803467 -0.57275391
0.26245117 0.0080032349 -0.57519531
0.26586914 0.0080337524 -0.57714844
0.26904297 0.0080490112 -0.578125
0.1439209 0.0056266785 -0.60791016
0.14624023 0.005607605 -0.60595703
0.14855957 0.0055885315 -0.60400391
0.15063477 0.0055618286 -0.60107422
0.15270996 0.005531311 -0.59814453
0.15466309 0.0055046082 -0.59521484
0.15698242 0.0054855347 -0.59326172
0.15893555 0.0054588318 -0.58984375
0.16088867 0.0054321289 -0.58691406
0.16271973 0.0054016113 -0.58398438
0.16430664 0.0053672791 -0.58007812
0.1661377 0.0053367615 -0.57714844
0.16796875 0.0053100586 -0.57421875
0.17004395 0.0052909851 -0.57177734
0.171875 0.0052642822 -0.56884766
0.17358398 0.0052375793 -0.56591797
0.17529297 0.0052070618 -0.56298828
0.17700195 0.0051803589 -0.56005859
0.17895508 0.0051612854 -0.55810547
0.18054199 0.0051345825 -0.5546875
0.18212891 0.0051040649 -0.55175781
0.18408203 0.0050888062 -0.54980469
0.18566895 0.0050582886 -0.546875
0.1875 0.0050392151 -0.54492188
0.18933105 0.0050239563 -0.54296875
0.19152832 0.0050125122 -0.54199219
0.19372559 0.0050048828 -0.54101562
0.19628906 0.0050048828 -0.54101562
0.19873047 0.0050048828 -0.54101562
0.20129395 0.0050048828 -0.54101562
0.20422363 0.0050125122 -0.54199219
0.20715332 0.0050239563 -0.54296875
0.21044922 0.0050392151 -0.54492188
0.21337891 0.0050506592 -0.54589844
0.2166748 0.0050697327 -0.54785156
0.22009277 0.0050888062 -0.54980469
0.22351074 0.0051040649 -0.55175781
0.22729492 0.0051345825 -0.5546875
0.23071289 0.005153656 -0.55712891
0.23413086 0.0051689148 -0.55908203
0.2376709 0.0051879883 -0.56103516
0.24108887 0.0052070618 -0.56298828
0.24462891 0.0052261353 -0.56494141
0.24853516 0.0052528381 -0.56787109
0.25195312 0.0052719116 -0.56982422
0.25561523 0.0052909851 -0.57177734
0.25878906 0.0053024292 -0.57275391
0.26245117 0.005317688 -0.57519531
0.26586914 0.0053367615 -0.57714844
0.26904297 0.0053482056 -0.578125
0.1439209 0.0027828217 -0.60791016
0.14624023 0.0027751923 -0.60595703
0.14855957 0.0027656555 -0.60400391
0.15063477 0.0027523041 -0.60107422
0.15270996 0.0027370453 -0.59814453
0.15490723 0.0027275085 -0.59619141
0.15698242 0.0027141571 -0.59326172
0.15893555 0.0027008057 -0.58984375
0.16088867 0.0026874542 -0.58691406
0.16271973 0.0026741028 -0.58398438
0.16467285 0.002658844 -0.58105469
0.16650391 0.0026454926 -0.578125
0.16833496 0.0026321411 -0.57519531
0.17004395 0.0026187897 -0.57177734
0.171875 0.0026035309 -0.56884766
0.17358398 0.0025901794 -0.56591797
0.17529297 0.002576828 -0.56298828
0.17700195 0.0025634766 -0.56005859
0.17895508 0.0025539398 -0.55810547
0.18054199 0.0025405884 -0.5546875
0.18212891 0.0025253296 -0.55175781
0.18408203 0.0025177002 -0.54980469
0.18566895 0.0025024414 -0.546875
0.1875 0.002494812 -0.54492188
0.18969727 0.00248909 -0.54394531
0.19152832 0.0024795532 -0.54199219
0.19372559 0.0024757385 -0.54101562
0.19628906 0.0024757385 -0.54101562
0.19873047 0.0024757385 -0.54101562
0.20129395 0.0024757385 -0.54101562
0.20422363 0.0024795532 -0.54199219
0.20715332 0.0024852753 -0.54296875
0.21044922 0.002494812 -0.54492188
0.21337891 0.0024986267 -0.54589844
0.2166748 0.0025081635 -0.54785156
0.22009277 0.0025177002 -0.54980469
0.22387695 0.0025310516 -0.55273438
0.22729492 0.0025405884 -0.5546875
0.23071289 0.0025501251 -0.55712891
0.23413086 0.0025577545 -0.55908203
0.2376709 0.0025672913 -0.56103516
0.24108887 0.002576828 -0.56298828
0.24499512 0.0025901794 -0.56591797
0.24853516 0.0025997162 -0.56787109
0.25195312 0.0026092529 -0.56982422
0.25561523 0.0026187897 -0.57177734
0.25927734 0.0026264191 -0.57421875
0.26245117 0.0026321411 -0.57519531
0.26586914 0.0026416779 -0.57714844
0.26904297 0.0026454926 -0.578125
0.2722168 0.0026512146 -0.57910156
0.1439209 -5.8710575e-05 -0.60791016
0.14624023 -5.8472157e-05 -0.60595703
0.14855957 -5.8293343e-05 -0.60400391
0.15063477 -5.7995319e-05 -0.60107422
0.1529541 -5.7816505e-05 -0.59912109
0.15490723 -5.7518482e-05 -0.59619141
0.15698242 -5.7220459e-05 -0.59326172
0.15893555 -5.6922436e-05 -0.58984375
0.16088867 -5.6684017e-05 -0.58691406
0.16271973 -5.6385994e-05 -0.58398438
0.16467285 -5.6087971e-05 -0.58105469
0.16650391 -5.5789948e-05 -0.578125
0.16833496 -5.5491924e-05 -0.57519531
0.17004395 -5.5193901e-05 -0.57177734
0.171875 -5.4895878e-05 -0.56884766
0.17358398 -5.4597855e-05 -0.56591797
0.17529297 -5.4359436e-05 -0.56298828
0.17700195 -5.4061413e-05 -0.56005859
0.17895508 -5.3822994e-05 -0.55810547
0.18054199 -5.3584576e-05 -0.5546875
0.18212891 -5.3286552e-05 -0.55175781
0.18408203 -5.3048134e-05 -0.54980469
0.18566895 -5.2750111e-05 -0.546875
0.1875 -5.2571297e-05 -0.54492188
0.18969727 -5.2511692e-05 -0.54394531
0.19152832 -5.2273273e-05 -0.54199219
0.19372559 -5.2213669e-05 -0.54101562
0.19628906 -5.2213669e-05 -0.54101562
0.19873047 -5.2213669e-05 -0.54101562
0.20129395 -5.2213669e-05 -0.54101562
0.20422363 -5.2273273e-05 -0.54199219
0.20715332 -5.2392483e-05 -0.54296875
0.21044922 -5.2571297e-05 -0.54492188
0.21374512 -5.2750111e-05 -0.546875
0.21716309 -5.2988529e-05 -0.54882812
0.22045898 -5.3167343e-05 -0.55078125
0.22387695 -5.3346157e-05 -0.55273438
0.22729492 -5.3584576e-05 -0.5546875
0.23071289 -5.376339e-05 -0.55712891
0.23413086 -5.3942204e-05 -0.55908203
0.23803711 -5.4240227e-05 -0.56201172
0.24157715 -5.4419041e-05 -0.56396484
0.24499512 -5.4597855e-05 -0.56591797
0.24853516 -5.4836273e-05 -0.56787109
0.25195312 -5.5015087e-05 -0.56982422
0.25561523 -5.5193901e-05 -0.57177734
0.25927734 -5.5372715e-05 -0.57421875
0.26269531 -5.5611134e-05 -0.57617188
0.26586914 -5.5670738e-05 -0.57714844
0.26904297 -5.5789948e-05 -0.578125
0.2722168 -5.5909157e-05 -0.57910156
0.1439209 -0.0029010773 -0.60791016
0.14624023 -0.0028915405 -0.60595703
0.14855957 -0.0028820038 -0.60400391
0.15087891 -0.002872467 -0.60205078
0.1529541 -0.0028572083 -0.59912109
0.15490723 -0.0028438568 -0.59619141
0.15698242 -0.002828598 -0.59326172
0.15893555 -0.0028152466 -0.58984375
0.16088867 -0.0027999878 -0.58691406
0.16271973 -0.0027866364 -0.58398438
0.16467285 -0.0027713776 -0.58105469
0.16650391 -0.0027580261 -0.578125
0.16833496 -0.0027427673 -0.57519531
0.17004395 -0.0027294159 -0.57177734
0.171875 -0.0027141571 -0.56884766
0.17358398 -0.0027008057 -0.56591797
0.17529297 -0.0026855469 -0.56298828
0.17700195 -0.0026702881 -0.56005859
0.17895508 -0.0026607513 -0.55810547
0.18054199 -0.0026473999 -0.5546875
0.18212891 -0.0026321411 -0.55175781
0.18408203 -0.0026226044 -0.54980469
0.18603516 -0.0026130676 -0.54785156
0.1875 -0.0025997162 -0.54492188
0.18969727 -0.0025939941 -0.54394531
0.19152832 -0.0025844574 -0.54199219
0.19372559 -0.0025806427 -0.54101562
0.19628906 -0.0025806427 -0.54101562
0.19873047 -0.0025806427 -0.54101562
0.20166016 -0.0025844574 -0.54199219
0.20422363 -0.0025844574 -0.54199219
0.20715332 -0.0025901794 -0.54296875
0.21044922 -0.0025997162 -0.54492188
0.21374512 -0.0026092529 -0.546875
0.21716309 -0.0026187897 -0.54882812
0.22045898 -0.0026283264 -0.55078125
0.22387695 -0.0026378632 -0.55273438
0.22729492 -0.0026473999 -0.5546875
0.23071289 -0.0026569366 -0.55712891
0.23461914 -0.0026702881 -0.56005859
0.23803711 -0.0026798248 -0.56201172
0.24157715 -0.0026893616 -0.56396484
0.24499512 -0.0027008057 -0.56591797
0.24853516 -0.0027103424 -0.56787109
0.25195312 -0.0027198792 -0.56982422
0.25561523 -0.0027294159 -0.57177734
0.25927734 -0.0027389526 -0.57421875
0.26269531 -0.0027484894 -0.57617188
0.26586914 -0.0027523041 -0.57714844
0.26953125 -0.0027618408 -0.57910156
0.2722168 -0.0027618408 -0.57910156
0.14147949 -0.0057640076 -0.61035156
0.1439209 -0.0057449341 -0.60791016
0.14648438 -0.00573349 -0.60693359
0.14855957 -0.0057067871 -0.60400391
0.15087891 -0.0056877136 -0.60205078
0.1529541 -0.005657196 -0.59912109
0.15490723 -0.0056304932 -0.59619141
0.15722656 -0.0056114197 -0.59423828
0.15917969 -0.0055809021 -0.59130859
0.16088867 -0.0055427551 -0.58691406
0.16271973 -0.0055160522 -0.58398438
0.16467285 -0.0054855347 -0.58105469
0.16650391 -0.0054588318 -0.578125
0.16833496 -0.0054321289 -0.57519531
0.17004395 -0.0054016113 -0.57177734
0.171875 -0.0053749084 -0.56884766
0.17358398 -0.0053443909 -0.56591797
0.17529297 -0.005317688 -0.56298828
0.17724609 -0.0052986145 -0.56103516
0.17895508 -0.0052680969 -0.55810547
0.18054199 -0.005241394 -0.5546875
0.18212891 -0.0052108765 -0.55175781
0.18408203 -0.005191803 -0.54980469
0.18566895 -0.0051651001 -0.546875
0.1875 -0.0051460266 -0.54492188
0.18969727 -0.0051383972 -0.54394531
0.19152832 -0.0051193237 -0.54199219
0.19372559 -0.0051078796 -0.54101562
0.19628906 -0.0051078796 -0.54101562
0.19873047 -0.0051078796 -0.54101562
0.20166016 -0.0051193237 -0.54199219
0.20422363 -0.0051193237 -0.54199219
0.20751953 -0.0051383972 -0.54394531
0.21044922 -0.0051460266 -0.54492188
0.21374512 -0.0051651001 -0.546875
0.21716309 -0.0051841736 -0.54882812
0.22045898 -0.0052032471 -0.55078125
0.22387695 -0.0052223206 -0.55273438
0.22729492 -0.005241394 -0.5546875
0.2310791 -0.0052680969 -0.55810547
0.23461914 -0.0052871704 -0.56005859
0.23803711 -0.0053062439 -0.56201172
0.24157715 -0.0053253174 -0.56396484
0.24499512 -0.0053443909 -0.56591797
0.24853516 -0.0053634644 -0.56787109
0.25244141 -0.0053939819 -0.57080078
0.25610352 -0.0054130554 -0.57275391
0.25927734 -0.0054206848 -0.57421875
0.26269531 -0.0054397583 -0.57617188
0.26635742 -0.0054588318 -0.578125
0.26953125 -0.0054664612 -0.57910156
0.27270508 -0.0054779053 -0.58007812
0.27539062 -0.0054779053 -0.58007812
0.14147949 -0.0086135864 -0.61035156
0.14416504 -0.0085983276 -0.609375
0.14648438 -0.0085678101 -0.60693359
0.14880371 -0.0085449219 -0.60498047
0.15087891 -0.0084991455 -0.60205078
0.15319824 -0.0084686279 -0.60009766
0.15527344 -0.008430481 -0.59716797
0.15722656 -0.0083847046 -0.59423828
0.15917969 -0.0083465576 -0.59130859
0.16113281 -0.0083007812 -0.58789062
0.16308594 -0.0082550049 -0.58496094
0.16467285 -0.0082015991 -0.58105469
0.16650391 -0.0081558228 -0.578125
0.16833496 -0.0081176758 -0.57519531
0.17004395 -0.0080718994 -0.57177734
0.171875 -0.0080337524 -0.56884766
0.17358398 -0.0079879761 -0.56591797
0.17529297 -0.0079498291 -0.56298828
0.17724609 -0.0079193115 -0.56103516
0.17895508 -0.0078735352 -0.55810547
0.18054199 -0.0078353882 -0.5546875
0.18212891 -0.0077934265 -0.55175781
0.18408203 -0.0077629089 -0.54980469
0.18566895 -0.0077209473 -0.546875
0.1875 -0.0076942444 -0.54492188
0.18969727 -0.0076789856 -0.54394531
0.19152832 -0.0076522827 -0.54199219
0.1940918 -0.0076522827 -0.54199219
0.19628906 -0.0076370239 -0.54101562
0.19873047 -0.0076370239 -0.54101562
0.20166016 -0.0076522827 -0.54199219
0.20458984 -0.0076637268 -0.54296875
0.20751953 -0.0076789856 -0.54394531
0.21044922 -0.0076942444 -0.54492188
0.21374512 -0.0077209473 -0.546875
0.21716309 -0.0077514648 -0.54882812
0.22045898 -0.0077781677 -0.55078125
0.22387695 -0.0078086853 -0.55273438
0.22766113 -0.007850647 -0.55615234
0.2310791 -0.0078735352 -0.55810547
0.23461914 -0.0079040527 -0.56005859
0.23803711 -0.0079345703 -0.56201172
0.24157715 -0.0079574585 -0.56396484
0.2454834 -0.0080032349 -0.56689453
0.24902344 -0.0080337524 -0.56884766
0.25244141 -0.0080566406 -0.57080078
0.25610352 -0.0080871582 -0.57275391
0.25976562 -0.0081176758 -0.57519531
0.26269531 -0.0081329346 -0.57617188
0.26635742 -0.0081558228 -0.578125
0.26953125 -0.0081710815 -0.57910156
0.27270508 -0.0081863403 -0.58007812
0.27587891 -0.0082015991 -0.58105469
0.14416504 -0.011444092 -0.609375
0.14648438 -0.011405945 -0.60693359
0.14880371 -0.011367798 -0.60498047
0.15087891 -0.011314392 -0.60205078
0.15319824 -0.011276245 -0.60009766
0.15527344 -0.011222839 -0.59716797
0.15722656 -0.011161804 -0.59423828
0.15917969 -0.011108398 -0.59130859
0.16113281 -0.011047363 -0.58789062
0.16308594 -0.010993958 -0.58496094
0.16491699 -0.010940552 -0.58203125
0.16674805 -0.010879517 -0.57910156
0.1685791 -0.010826111 -0.57617188
0.17041016 -0.010765076 -0.57275391
0.171875 -0.010688782 -0.56884766
0.17358398 -0.010635376 -0.56591797
0.17565918 -0.010597229 -0.56396484
0.17724609 -0.010543823 -0.56103516
0.17895508 -0.010482788 -0.55810547
0.18054199 -0.010429382 -0.5546875
0.18212891 -0.010368347 -0.55175781
0.18408203 -0.0103302 -0.54980469
0.18566895 -0.010276794 -0.546875
0.1875 -0.010238647 -0.54492188
0.18969727 -0.010223389 -0.54394531
0.19152832 -0.010185242 -0.54199219
0.1940918 -0.010185242 -0.54199219
0.19628906 -0.010162354 -0.54101562
0.19873047 -0.010162354 -0.54101562
0.20166016 -0.010185242 -0.54199219
0.20458984 -0.0102005 -0.54296875
0.20751953 -0.010223389 -0.54394531
0.21081543 -0.010261536 -0.54589844
0.21374512 -0.010276794 -0.546875
0.21716309 -0.010314941 -0.54882812
0.22045898 -0.010353088 -0.55078125
0.22424316 -0.010406494 -0.55371094
0.22766113 -0.010444641 -0.55615234
0.2310791 -0.010482788 -0.55810547
0.23461914 -0.010520935 -0.56005859
0.23803711 -0.010559082 -0.56201172
0.24194336 -0.010620117 -0.56494141
0.2454834 -0.010650635 -0.56689453
0.24902344 -0.010688782 -0.56884766
0.25244141 -0.010726929 -0.57080078
0.25610352 -0.010765076 -0.57275391
0.25976562 -0.010803223 -0.57519531
0.26318359 -0.01084137 -0.57714844
0.26635742 -0.010864258 -0.578125
0.26953125 -0.010879517 -0.57910156
0.27270508 -0.010902405 -0.58007812
0.27587891 -0.010917664 -0.58105469
0.14172363 -0.014343262 -0.61132812
0.14416504 -0.014297485 -0.609375
0.14648438 -0.01424408 -0.60693359
0.14880371 -0.014198303 -0.60498047
0.15112305 -0.014152527 -0.60302734
0.15319824 -0.014083862 -0.60009766
0.15527344 -0.014015198 -0.59716797
0.15722656 -0.013938904 -0.59423828
0.15917969 -0.013870239 -0.59130859
0.16113281 -0.013801575 -0.58789062
0.16308594 -0.01373291 -0.58496094
0.16491699 -0.013656616 -0.58203125
0.16674805 -0.013587952 -0.57910156
0.1685791 -0.013519287 -0.57617188
0.17041016 -0.013442993 -0.57275391
0.17211914 -0.013374329 -0.56982422
0.1739502 -0.013305664 -0.56689453
0.17565918 -0.013237 -0.56396484
0.17724609 -0.013160706 -0.56103516
0.17895508 -0.013092041 -0.55810547
0.18054199 -0.013023376 -0.5546875
0.18249512 -0.0129776 -0.55273438
0.18408203 -0.012901306 -0.54980469
0.18566895 -0.012832642 -0.546875
0.1875 -0.012786865 -0.54492188
0.18969727 -0.012763977 -0.54394531
0.19152832 -0.012718201 -0.54199219
0.1940918 -0.012718201 -0.54199219
0.19628906 -0.012695312 -0.54101562
0.19873047 -0.012695312 -0.54101562
0.20166016 -0.012718201 -0.54199219
0.20458984 -0.012741089 -0.54296875
0.20751953 -0.012763977 -0.54394531
0.21081543 -0.012809753 -0.54589844
0.21411133 -0.01285553 -0.54785156
0.2175293 -0.012901306 -0.54980469
0.22094727 -0.012954712 -0.55175781
0.22424316 -0.013000488 -0.55371094
0.22766113 -0.013046265 -0.55615234
0.2310791 -0.013092041 -0.55810547
0.23461914 -0.013137817 -0.56005859
0.23852539 -0.013214111 -0.56298828
0.24194336 -0.013259888 -0.56494141
0.2454834 -0.013305664 -0.56689453
0.24902344 -0.01335144 -0.56884766
0.25244141 -0.013397217 -0.57080078
0.25610352 -0.013442993 -0.57275391
0.25976562 -0.013496399 -0.57519531
0.26318359 -0.013542175 -0.57714844
0.26635742 -0.013565063 -0.578125
0.27001953 -0.01361084 -0.58007812
0.27319336 -0.013633728 -0.58105469
0.27587891 -0.013633728 -0.58105469
0.14172363 -0.017196655 -0.61132812
0.14416504 -0.01713562 -0.609375
0.14648438 -0.017074585 -0.60693359
0.14880371 -0.017028809 -0.60498047
0.15112305 -0.016967773 -0.60302734
0.15319824 -0.016891479 -0.60009766
0.15527344 -0.016799927 -0.59716797
0.15722656 -0.016708374 -0.59423828
0.15917969 -0.01663208 -0.59130859
0.16113281 -0.016540527 -0.58789062
0.16308594 -0.016464233 -0.58496094
0.16491699 -0.016372681 -0.58203125
0.16674805 -0.016296387 -0.57910156
0.1685791 -0.016204834 -0.57617188
0.1706543 -0.016143799 -0.57421875
0.17211914 -0.016036987 -0.56982422
0.1739502 -0.015945435 -0.56689453
0.17565918 -0.015869141 -0.56396484
0.17724609 -0.015777588 -0.56103516
0.17895508 -0.015701294 -0.55810547
0.18054199 -0.015617371 -0.5546875
0.18249512 -0.015563965 -0.55273438
0.18408203 -0.015472412 -0.54980469
0.18603516 -0.015419006 -0.54785156
0.1875 -0.015335083 -0.54492188
0.18969727 -0.015304565 -0.54394531
0.19189453 -0.015281677 -0.54296875
0.1940918 -0.01525116 -0.54199219
0.19628906 -0.015220642 -0.54101562
0.19909668 -0.01525116 -0.54199219
0.20166016 -0.01525116 -0.54199219
0.20458984 -0.015281677 -0.54296875
0.20751953 -0.015304565 -0.54394531
0.21081543 -0.015365601 -0.54589844
0.21411133 -0.015419006 -0.54785156
0.2175293 -0.015472412 -0.54980469
0.22094727 -0.015533447 -0.55175781
0.22424316 -0.015586853 -0.55371094
0.22766113 -0.015640259 -0.55615234
0.2310791 -0.015701294 -0.55810547
0.23498535 -0.015777588 -0.56103516
0.23852539 -0.015838623 -0.56298828
0.24194336 -0.015899658 -0.56494141
0.2454834 -0.015945435 -0.56689453
0.24902344 -0.01600647 -0.56884766
0.25244141 -0.016067505 -0.57080078
0.25610352 -0.01612854 -0.57275391
0.25976562 -0.016174316 -0.57519531
0.26318359 -0.016235352 -0.57714844
0.2668457 -0.016296387 -0.57910156
0.27001953 -0.016326904 -0.58007812
0.27319336 -0.016342163 -0.58105469
0.27587891 -0.016342163 -0.58105469
0.14172363 -0.020050049 -0.61132812
0.14416504 -0.019989014 -0.609375
0.14648438 -0.019927979 -0.60693359
0.14880371 -0.019851685 -0.60498047
0.15112305 -0.019790649 -0.60302734
0.15344238 -0.019729614 -0.60107422
0.15527344 -0.019592285 -0.59716797
0.15722656 -0.019485474 -0.59423828
0.15917969 -0.019393921 -0.59130859
0.16113281 -0.019302368 -0.58789062
0.16308594 -0.019195557 -0.58496094
0.16491699 -0.019104004 -0.58203125
0.16674805 -0.018997192 -0.57910156
0.1685791 -0.01890564 -0.57617188
0.1706543 -0.018829346 -0.57421875
0.17211914 -0.018707275 -0.56982422
0.1739502 -0.018600464 -0.56689453
0.17565918 -0.018508911 -0.56396484
0.17724609 -0.0184021 -0.56103516
0.17932129 -0.018341064 -0.55908203
0.1809082 -0.018234253 -0.55615234
0.18249512 -0.0181427 -0.55273438
0.18408203 -0.018035889 -0.54980469
0.18603516 -0.017974854 -0.54785156
0.18786621 -0.017913818 -0.54589844
0.18969727 -0.017852783 -0.54394531
0.19189453 -0.017807007 -0.54296875
0.1940918 -0.017776489 -0.54199219
0.19665527 -0.017776489 -0.54199219
0.19909668 -0.017776489 -0.54199219
0.20166016 -0.017776489 -0.54199219
0.20458984 -0.017807007 -0.54296875
0.20788574 -0.017883301 -0.54492188
0.21081543 -0.017913818 -0.54589844
0.21411133 -0.017974854 -0.54785156
0.2175293 -0.018035889 -0.54980469
0.22094727 -0.018112183 -0.55175781
0.22424316 -0.018173218 -0.55371094
0.22766113 -0.018234253 -0.55615234
0.23156738 -0.018341064 -0.55908203
0.23498535 -0.0184021 -0.56103516
0.23852539 -0.018478394 -0.56298828
0.24194336 -0.018539429 -0.56494141
0.2454834 -0.018600464 -0.56689453
0.24938965 -0.018707275 -0.56982422
0.25292969 -0.018768311 -0.57177734
0.2565918 -0.018829346 -0.57421875
0.26000977 -0.01890564 -0.57617188
0.26318359 -0.018936157 -0.57714844
0.2668457 -0.018997192 -0.57910156
0.27001953 -0.01902771 -0.58007812
0.27319336 -0.019058228 -0.58105469
0.27636719 -0.019104004 -0.58203125
0.14172363 -0.022903442 -0.61132812
0.14416504 -0.022827148 -0.609375
0.14648438 -0.022766113 -0.60693359
0.14880371 -0.022689819 -0.60498047
0.15112305 -0.022613525 -0.60302734
0.15344238 -0.022537231 -0.60107422
0.15527344 -0.022384644 -0.59716797
0.15722656 -0.022262573 -0.59423828
0.15917969 -0.022155762 -0.59130859
0.16113281 -0.02204895 -0.58789062
0.16308594 -0.02192688 -0.58496094
0.16491699 -0.021820068 -0.58203125
0.16674805 -0.021697998 -0.57910156
0.1685791 -0.021591187 -0.57617188
0.1706543 -0.021514893 -0.57421875
0.17248535 -0.021408081 -0.57080078
0.1739502 -0.021255493 -0.56689453
0.17590332 -0.021179199 -0.56494141
0.1776123 -0.021072388 -0.56201172
0.17932129 -0.020950317 -0.55908203
0.1809082 -0.020843506 -0.55615234
0.18249512 -0.020721436 -0.55273438
0.18408203 -0.020614624 -0.54980469
0.18603516 -0.02053833 -0.54785156
0.18786621 -0.020462036 -0.54589844
0.18969727 -0.020385742 -0.54394531
0.19189453 -0.020355225 -0.54296875
0.1940918 -0.020309448 -0.54199219
0.19665527 -0.020309448 -0.54199219
0.19909668 -0.020309448 -0.54199219
0.20166016 -0.020309448 -0.54199219
0.20458984 -0.020355225 -0.54296875
0.20788574 -0.020431519 -0.54492188
0.21081543 -0.020462036 -0.54589844
0.21411133 -0.02053833 -0.54785156
0.2175293 -0.020614624 -0.54980469
0.22094727 -0.020690918 -0.55175781
0.22473145 -0.020797729 -0.5546875
0.22814941 -0.020874023 -0.55712891
0.23156738 -0.020950317 -0.55908203
0.23498535 -0.021026611 -0.56103516
0.23852539 -0.021102905 -0.56298828
0.24194336 -0.021179199 -0.56494141
0.24584961 -0.021286011 -0.56787109
0.24938965 -0.021362305 -0.56982422
0.25292969 -0.021438599 -0.57177734
0.2565918 -0.021514893 -0.57421875
0.26000977 -0.021591187 -0.57617188
0.26318359 -0.021636963 -0.57714844
0.2668457 -0.021697998 -0.57910156
0.27001953 -0.021743774 -0.58007812
0.27319336 -0.021774292 -0.58105469
0.27636719 -0.021820068 -0.58203125
0.14196777 -0.025802612 -0.61230469
0.14880371 -0.025512695 -0.60498047
0.15136719 -0.025466919 -0.60400391
0.15368652 -0.025390625 -0.60205078
0.15893555 -0.024871826 -0.58984375
0.16113281 -0.024795532 -0.58789062
0.16308594 -0.024673462 -0.58496094
0.16491699 -0.024536133 -0.58203125
0.16674805 -0.024414062 -0.57910156
0.1685791 -0.024291992 -0.57617188
0.17041016 -0.024154663 -0.57275391
0.17248535 -0.024078369 -0.57080078
0.17419434 -0.02394104 -0.56787109
0.17590332 -0.02381897 -0.56494141
0.1776123 -0.023696899 -0.56201172
0.17932129 -0.02355957 -0.55908203
0.1809082 -0.0234375 -0.55615234
0.18249512 -0.02331543 -0.55273438
0.18444824 -0.023223877 -0.55078125
0.18603516 -0.023101807 -0.54785156
0.18786621 -0.023010254 -0.54589844
0.18969727 -0.02293396 -0.54394531
0.19189453 -0.022888184 -0.54296875
0.1940918 -0.022842407 -0.54199219
0.19665527 -0.022842407 -0.54199219
0.19909668 -0.022842407 -0.54199219
0.20202637 -0.022888184 -0.54296875
0.20495605 -0.02293396 -0.54394531
0.20788574 -0.022979736 -0.54492188
0.21118164 -0.02305603 -0.546875
0.21411133 -0.023101807 -0.54785156
0.2175293 -0.023178101 -0.54980469
0.22131348 -0.02331543 -0.55273438
0.22473145 -0.023391724 -0.5546875
0.22814941 -0.023483276 -0.55712891
0.23156738 -0.02355957 -0.55908203
0.23498535 -0.023651123 -0.56103516
0.2388916 -0.023773193 -0.56396484
0.24243164 -0.023864746 -0.56591797
0.24584961 -0.02394104 -0.56787109
0.24938965 -0.024032593 -0.56982422
0.25292969 -0.024108887 -0.57177734
0.2565918 -0.024200439 -0.57421875
0.26000977 -0.024291992 -0.57617188
0.26318359 -0.02432251 -0.57714844
0.2668457 -0.024414062 -0.57910156
0.27001953 -0.024459839 -0.58007812
0.27319336 -0.024490356 -0.58105469
0.27636719 -0.024536133 -0.58203125
0.14196777 -0.028671265 -0.61230469
0.14880371 -0.028335571 -0.60498047
0.15136719 -0.028289795 -0.60400391
0.15344238 -0.028152466 -0.60107422
0.15698242 -0.027770996 -0.59326172
0.15917969 -0.027679443 -0.59130859
0.16113281 -0.027542114 -0.58789062
0.16308594 -0.027404785 -0.58496094
0.16491699 -0.027267456 -0.58203125
0.16674805 -0.027114868 -0.57910156
0.1685791 -0.026977539 -0.57617188
0.1706543 -0.026885986 -0.57421875
0.17248535 -0.026748657 -0.57080078
0.17419434 -0.026596069 -0.56787109
0.17590332 -0.02645874 -0.56494141
0.1776123 -0.026321411 -0.56201172
0.17932129 -0.026184082 -0.55908203
0.1809082 -0.026031494 -0.55615234
0.18249512 -0.025894165 -0.55273438
0.18444824 -0.025802612 -0.55078125
0.18603516 -0.025665283 -0.54785156
0.18786621 -0.02557373 -0.54589844
0.18969727 -0.025466919 -0.54394531
0.19189453 -0.025421143 -0.54296875
0.1940918 -0.025375366 -0.54199219
0.19665527 -0.025375366 -0.54199219
0.19909668 -0.025375366 -0.54199219
0.20202637 -0.025421143 -0.54296875
0.20495605 -0.025466919 -0.54394531
0.20788574 -0.025527954 -0.54492188
0.21118164 -0.025619507 -0.546875
0.21459961 -0.02571106 -0.54882812
0.21789551 -0.025802612 -0.55078125
0.22131348 -0.025894165 -0.55273438
0.22473145 -0.025985718 -0.5546875
0.22814941 -0.026092529 -0.55712891
0.23156738 -0.026184082 -0.55908203
0.23547363 -0.026321411 -0.56201172
0.2388916 -0.026412964 -0.56396484
0.24243164 -0.026504517 -0.56591797
0.24584961 -0.026596069 -0.56787109
0.24938965 -0.026702881 -0.56982422
0.25292969 -0.026794434 -0.57177734
0.2565918 -0.026885986 -0.57421875
0.26000977 -0.026977539 -0.57617188
0.26318359 -0.027023315 -0.57714844
0.2668457 -0.027114868 -0.57910156
0.27001953 -0.027160645 -0.58007812
0.27319336 -0.027206421 -0.58105469
0.27636719 -0.027267456 -0.58203125
0.14440918 -0.031433105 -0.61035156
0.14672852 -0.031311035 -0.60791016
0.14904785 -0.031219482 -0.60595703
0.15136719 -0.031112671 -0.60400391
0.15344238 -0.030960083 -0.60107422
0.15551758 -0.030807495 -0.59814453
0.15722656 -0.030609131 -0.59423828
0.15917969 -0.030441284 -0.59130859
0.16113281 -0.030288696 -0.58789062
0.16308594 -0.030136108 -0.58496094
0.16491699 -0.029983521 -0.58203125
0.16674805 -0.029830933 -0.57910156
0.1685791 -0.029678345 -0.57617188
0.1706543 -0.029571533 -0.57421875
0.17248535 -0.029418945 -0.57080078
0.17419434 -0.029251099 -0.56787109
0.17590332 -0.029098511 -0.56494141
0.1776123 -0.028945923 -0.56201172
0.17932129 -0.028793335 -0.55908203
0.1809082 -0.028640747 -0.55615234
0.18286133 -0.028533936 -0.55371094
0.18444824 -0.028381348 -0.55078125
0.1862793 -0.028274536 -0.54882812
0.18786621 -0.028121948 -0.54589844
0.19006348 -0.028076172 -0.54492188
0.19189453 -0.02796936 -0.54296875
0.19445801 -0.02796936 -0.54296875
0.19665527 -0.027908325 -0.54199219
0.19909668 -0.027908325 -0.54199219
0.20202637 -0.02796936 -0.54296875
0.20495605 -0.028015137 -0.54394531
0.20788574 -0.028076172 -0.54492188
0.21118164 -0.028167725 -0.546875
0.21459961 -0.028274536 -0.54882812
0.21789551 -0.028381348 -0.55078125
0.22131348 -0.028488159 -0.55273438
0.22473145 -0.028579712 -0.5546875
0.22814941 -0.028686523 -0.55712891
0.23156738 -0.028793335 -0.55908203
0.23547363 -0.028945923 -0.56201172
0.2388916 -0.029052734 -0.56396484
0.24243164 -0.029159546 -0.56591797
0.24584961 -0.029251099 -0.56787109
0.24938965 -0.02935791 -0.56982422
0.25292969 -0.029464722 -0.57177734
0.2565918 -0.029571533 -0.57421875
0.26000977 -0.029678345 -0.57617188
0.26367188 -0.029769897 -0.578125
0.2668457 -0.029830933 -0.57910156
0.27001953 -0.029876709 -0.58007812
0.27319336 -0.029937744 -0.58105469
0.27636719 -0.029983521 -0.58203125
0.14440918 -0.03427124 -0.61035156
0.14672852 -0.03414917 -0.60791016
0.14904785 -0.034057617 -0.60595703
0.15136719 -0.033935547 -0.60400391
0.15344238 -0.033752441 -0.60107422
0.15551758 -0.033599854 -0.59814453
0.15722656 -0.03338623 -0.59423828
0.15942383 -0.03326416 -0.59228516
0.16137695 -0.033081055 -0.58886719
0.16333008 -0.032928467 -0.5859375
0.16491699 -0.032684326 -0.58203125
0.16674805 -0.032531738 -0.57910156
0.16894531 -0.032409668 -0.57714844
0.1706543 -0.03225708 -0.57421875
0.17248535 -0.032073975 -0.57080078
0.17419434 -0.031921387 -0.56787109
0.17590332 -0.031738281 -0.56494141
0.1776123 -0.031555176 -0.56201172
0.17932129 -0.031402588 -0.55908203
0.1809082 -0.031234741 -0.55615234
0.18286133 -0.03112793 -0.55371094
0.18444824 -0.030960083 -0.55078125
0.1862793 -0.030838013 -0.54882812
0.18823242 -0.030731201 -0.546875
0.19006348 -0.030609131 -0.54492188
0.19226074 -0.030563354 -0.54394531
0.19445801 -0.030502319 -0.54296875
0.19665527 -0.030441284 -0.54199219
0.19946289 -0.030502319 -0.54296875
0.20202637 -0.030502319 -0.54296875
0.20495605 -0.030563354 -0.54394531
0.20825195 -0.030670166 -0.54589844
0.21118164 -0.030731201 -0.546875
0.21459961 -0.030838013 -0.54882812
0.21789551 -0.030960083 -0.55078125
0.22131348 -0.031066895 -0.55273438
0.22473145 -0.031173706 -0.5546875
0.22814941 -0.031280518 -0.55712891
0.23193359 -0.031463623 -0.56005859
0.23547363 -0.031555176 -0.56201172
0.2388916 -0.031677246 -0.56396484
0.24279785 -0.031860352 -0.56689453
0.24633789 -0.031951904 -0.56884766
0.24987793 -0.032073975 -0.57080078
0.25341797 -0.032196045 -0.57275391
0.2565918 -0.03225708 -0.57421875
0.26000977 -0.032348633 -0.57617188
0.26367188 -0.032470703 -0.578125
0.2668457 -0.032531738 -0.57910156
0.27001953 -0.032592773 -0.58007812
0.27319336 -0.032653809 -0.58105469
0.27636719 -0.032684326 -0.58203125
0.14453125 -0.037200928 -0.61132812
0.14672852 -0.037017822 -0.60791016
0.14904785 -0.036895752 -0.60595703
0.15136719 -0.036773682 -0.60400391
0.15344238 -0.036590576 -0.60107422
0.15551758 -0.036407471 -0.59814453
0.1574707 -0.036224365 -0.59521484
0.15942383 -0.03604126 -0.59228516
0.16137695 -0.035858154 -0.58886719
0.16333008 -0.035675049 -0.5859375
0.16516113 -0.035491943 -0.58300781
0.16711426 -0.035308838 -0.58007812
0.16894531 -0.035125732 -0.57714844
0.1706543 -0.034942627 -0.57421875
0.17248535 -0.034759521 -0.57080078
0.17419434 -0.034576416 -0.56787109
0.17590332 -0.034393311 -0.56494141
0.1776123 -0.034210205 -0.56201172
0.17932129 -0.0340271 -0.55908203
0.18127441 -0.033874512 -0.55712891
0.18286133 -0.033691406 -0.55371094
0.18444824 -0.033508301 -0.55078125
0.1862793 -0.03338623 -0.54882812
0.18823242 -0.03326416 -0.546875
0.19006348 -0.03314209 -0.54492188
0.19226074 -0.033081055 -0.54394531
0.19445801 -0.03302002 -0.54296875
0.19702148 -0.03302002 -0.54296875
0.19946289 -0.03302002 -0.54296875
0.20202637 -0.03302002 -0.54296875
0.20532227 -0.03314209 -0.54492188
0.20825195 -0.033203125 -0.54589844
0.21154785 -0.033325195 -0.54785156
0.21459961 -0.03338623 -0.54882812
0.21789551 -0.033508301 -0.55078125
0.22131348 -0.033630371 -0.55273438
0.22473145 -0.033752441 -0.5546875
0.22851562 -0.033935547 -0.55810547
0.23193359 -0.034088135 -0.56005859
0.23547363 -0.034210205 -0.56201172
0.23937988 -0.034393311 -0.56494141
0.24279785 -0.034515381 -0.56689453
0.24633789 -0.034637451 -0.56884766
0.24987793 -0.034759521 -0.57080078
0.25341797 -0.034881592 -0.57275391
0.25683594 -0.035003662 -0.57519531
0.26000977 -0.035064697 -0.57617188
0.26367188 -0.035186768 -0.578125
0.2668457 -0.035247803 -0.57910156
0.27001953 -0.035308838 -0.58007812
0.27319336 -0.035369873 -0.58105469
0.14453125 -0.040039062 -0.61132812
0.14697266 -0.039916992 -0.609375
0.14904785 -0.039703369 -0.60595703
0.15136719 -0.039581299 -0.60400391
0.15344238 -0.039398193 -0.60107422
0.15551758 -0.03918457 -0.59814453
0.1574707 -0.039001465 -0.59521484
0.15942383 -0.038787842 -0.59228516
0.16137695 -0.038604736 -0.58886719
0.16333008 -0.038391113 -0.5859375
0.16516113 -0.038208008 -0.58300781
0.16711426 -0.037994385 -0.58007812
0.16894531 -0.037811279 -0.57714844
0.1706543 -0.037597656 -0.57421875
0.17248535 -0.037414551 -0.57080078
0.17419434 -0.037231445 -0.56787109
0.17590332 -0.037017822 -0.56494141
0.1776123 -0.036834717 -0.56201172
0.17932129 -0.036621094 -0.55908203
0.18127441 -0.036499023 -0.55712891
0.18286133 -0.0362854 -0.55371094
0.18481445 -0.03616333 -0.55175781
0.1862793 -0.035980225 -0.54882812
0.18823242 -0.035827637 -0.546875
0.19006348 -0.035705566 -0.54492188
0.19226074 -0.035644531 -0.54394531
0.19445801 -0.035583496 -0.54296875
0.19702148 -0.035583496 -0.54296875
0.19946289 -0.035583496 -0.54296875
0.20239258 -0.035644531 -0.54394531
0.20532227 -0.035705566 -0.54492188
0.20825195 -0.035766602 -0.54589844
0.21154785 -0.035888672 -0.54785156
0.21496582 -0.03604126 -0.54980469
0.21826172 -0.03616333 -0.55175781
0.22167969 -0.0362854 -0.55371094
0.22509766 -0.036437988 -0.55615234
0.22851562 -0.036560059 -0.55810547
0.23193359 -0.036682129 -0.56005859
0.23583984 -0.036895752 -0.56298828
0.23937988 -0.037017822 -0.56494141
0.24279785 -0.037139893 -0.56689453
0.24633789 -0.03729248 -0.56884766
0.24987793 -0.037414551 -0.57080078
0.25341797 -0.037536621 -0.57275391
0.25683594 -0.037689209 -0.57519531
0.26049805 -0.037811279 -0.57714844
0.26367188 -0.037872314 -0.578125
0.26733398 -0.037994385 -0.58007812
0.27050781 -0.038085938 -0.58105469
0.27319336 -0.038085938 -0.58105469
0.14440918 -0.04284668 -0.61035156
0.14697266 -0.042755127 -0.609375
0.14904785 -0.042541504 -0.60595703
0.15136719 -0.042419434 -0.60400391
0.15344238 -0.042205811 -0.60107422
0.15551758 -0.041992188 -0.59814453
0.1574707 -0.041778564 -0.59521484
0.15942383 -0.041564941 -0.59228516
0.16137695 -0.041351318 -0.58886719
0.16333008 -0.041137695 -0.5859375
0.16516113 -0.040924072 -0.58300781
0.16711426 -0.040710449 -0.58007812
0.16894531 -0.040496826 -0.57714844
0.1706543 -0.040283203 -0.57421875
0.17248535 -0.04006958 -0.57080078
0.17419434 -0.039886475 -0.56787109
0.17590332 -0.039672852 -0.56494141
0.1776123 -0.039459229 -0.56201172
0.17956543 -0.039306641 -0.56005859
0.18127441 -0.039093018 -0.55712891
0.18286133 -0.038879395 -0.55371094
0.18481445 -0.038757324 -0.55175781
0.18664551 -0.038604736 -0.54980469
0.18823242 -0.038391113 -0.546875
0.19042969 -0.038330078 -0.54589844
0.19226074 -0.03817749 -0.54394531
0.19482422 -0.03817749 -0.54394531
0.19702148 -0.038116455 -0.54296875
0.19946289 -0.038116455 -0.54296875
0.20239258 -0.03817749 -0.54394531
0.20532227 -0.038238525 -0.54492188
0.20825195 -0.038330078 -0.54589844
0.21154785 -0.038452148 -0.54785156
0.21496582 -0.038604736 -0.54980469
0.21826172 -0.038757324 -0.55175781
0.22167969 -0.038879395 -0.55371094
0.22509766 -0.039031982 -0.55615234
0.22851562 -0.039154053 -0.55810547
0.23193359 -0.039306641 -0.56005859
0.23583984 -0.039520264 -0.56298828
0.23937988 -0.039672852 -0.56494141
0.24279785 -0.039794922 -0.56689453
0.24633789 -0.03994751 -0.56884766
0.24987793 -0.04006958 -0.57080078
0.25341797 -0.040222168 -0.57275391
0.25683594 -0.040374756 -0.57519531
0.26049805 -0.040496826 -0.57714844
0.26367188 -0.040588379 -0.578125
0.26733398 -0.040710449 -0.58007812
0.27050781 -0.040802002 -0.58105469
0.27368164 -0.040863037 -0.58203125
0.14672852 -0.045532227 -0.60791016
0.14904785 -0.045379639 -0.60595703
0.15136719 -0.045227051 -0.60400391
0.15344238 -0.045013428 -0.60107422
0.15551758 -0.044769287 -0.59814453
0.15771484 -0.044647217 -0.59619141
0.15966797 -0.044403076 -0.59326172
0.16162109 -0.044189453 -0.58984375
0.16333008 -0.043884277 -0.5859375
0.16516113 -0.043670654 -0.58300781
0.16711426 -0.043426514 -0.58007812
0.16894531 -0.043212891 -0.57714844
0.1706543 -0.04296875 -0.57421875
0.17248535 -0.042755127 -0.57080078
0.17419434 -0.042541504 -0.56787109
0.17590332 -0.042297363 -0.56494141
0.17797852 -0.042144775 -0.56298828
0.17956543 -0.041931152 -0.56005859
0.18127441 -0.041687012 -0.55712891
0.18322754 -0.041564941 -0.5546875
0.18481445 -0.041320801 -0.55175781
0.18664551 -0.041168213 -0.54980469
