# .PCD v0.7 - Point Cloud Data file format
VERSION 0.7
FIELDS x y z
SIZE 4 4 4
TYPE F F F
COUNT 1 1 1
WIDTH 1437
HEIGHT 1
VIEWPOINT 0 0 0 1 0 0 0
POINTS 1437
DATA ascii
-0.35693359 0.87451172 -2.5996094
-0.34448242 0.87353516 -2.5976562
-0.33203125 0.87353516 -2.5957031
-0.31982422 0.87255859 -2.59375
-0.30761719 0.87255859 -2.59375
-0.2956543 0.87353516 -2.5957031
-0.28344727 0.87304688 -2.5957031
-0.27148438 0.87353516 -2.5976562
-0.25952148 0.87402344 -2.5976562
-0.24755859 0.87451172 -2.5996094
-0.23535156 0.87451172 -2.5996094
-0.2232666 0.87451172 -2.5996094
-0.21081543 0.87353516 -2.5957031
-0.19836426 0.87207031 -2.5917969
-0.18591309 0.87060547 -2.5878906
-0.17333984 0.86816406 -2.5800781
-0.16101074 0.86621094 -2.5742188
-0.14868164 0.86474609 -2.5703125
-0.13635254 0.86328125 -2.5664062
-0.12524414 0.86914062 -2.5839844
0.033050537 0.24719238 -0.73486328
0.036468506 0.24719238 -0.73486328
0.039916992 0.24719238 -0.73486328
0.043273926 0.24682617 -0.73339844
0.046722412 0.24682617 -0.73339844
0.050140381 0.24682617 -0.73339844
0.053588867 0.24682617 -0.73339844
0.057006836 0.24682617 -0.73339844
0.06036377 0.24645996 -0.73242188
0.063781738 0.24645996 -0.73242188
0.067199707 0.24645996 -0.73242188
0.070617676 0.24645996 -0.73242188
0.073913574 0.24609375 -0.73144531
0.077331543 0.24609375 -0.73144531
0.080749512 0.24609375 -0.73144531
0.08416748 0.24609375 -0.73144531
0.08770752 0.24645996 -0.73242188
0.091186523 0.24645996 -0.73242188
0.094604492 0.24645996 -0.73242188
0.098144531 0.24682617 -0.73339844
0.1015625 0.24682617 -0.73339844
0.10498047 0.24682617 -0.73339844
0.10845947 0.24682617 -0.73339844
0.11169434 0.24645996 -0.73242188
0.1151123 0.24645996 -0.73242188
0.11853027 0.24645996 -0.73242188
0.12182617 0.24609375 -0.73144531
0.12524414 0.24609375 -0.73144531
0.12866211 0.24609375 -0.73144531
0.13183594 0.24584961 -0.73046875
0.13525391 0.24584961 -0.73046875
0.13891602 0.24609375 -0.73144531
0.14233398 0.24609375 -0.73144531
0.16625977 0.24609375 -0.73144531
0.16967773 0.24609375 -0.73144531
0.17333984 0.24645996 -0.73242188
0.17675781 0.24645996 -0.73242188
0.18017578 0.24645996 -0.73242188
0.18359375 0.24645996 -0.73242188
0.18701172 0.24645996 -0.73242188
0.19042969 0.24645996 -0.73242188
0.19384766 0.24645996 -0.73242188
0.19702148 0.24609375 -0.73144531
0.20043945 0.24609375 -0.73144531
0.20361328 0.24584961 -0.73046875
0.20703125 0.24584961 -0.73046875
0.21044922 0.24584961 -0.73046875
0.21350098 0.2454834 -0.72949219
0.21691895 0.2454834 -0.72949219
0.22033691 0.2454834 -0.72949219
0.22375488 0.2454834 -0.72949219
0.25927734 0.24682617 -0.73339844
0.26269531 0.24682617 -0.73339844
0.26611328 0.24682617 -0.73339844
0.26953125 0.24682617 -0.73339844
0.27294922 0.24682617 -0.73339844
0.27636719 0.24682617 -0.73339844
0.27954102 0.24645996 -0.73242188
0.28295898 0.24645996 -0.73242188
0.28637695 0.24645996 -0.73242188
0.28979492 0.24645996 -0.73242188
0.29321289 0.24645996 -0.73242188
0.29614258 0.24609375 -0.73144531
0.29956055 0.24609375 -0.73144531
0.30297852 0.24609375 -0.73144531
0.30639648 0.24609375 -0.73144531
0.30981445 0.24609375 -0.73144531
0.31323242 0.24609375 -0.73144531
0.31665039 0.24609375 -0.73144531
0.32006836 0.24609375 -0.73144531
0.32348633 0.24609375 -0.73144531
0.3269043 0.24609375 -0.73144531
0.33032227 0.24609375 -0.73144531
0.33374023 0.24609375 -0.73144531
0.3371582 0.24609375 -0.73144531
0.34057617 0.24609375 -0.73144531
0.34399414 0.24609375 -0.73144531
0.34741211 0.24609375 -0.73144531
0.35083008 0.24609375 -0.73144531
0.35424805 0.24609375 -0.73144531
0.35766602 0.24609375 -0.73144531
0.36108398 0.24609375 -0.73144531
0.36450195 0.24609375 -0.73144531
0.36791992 0.24609375 -0.73144531
0.37133789 0.24609375 -0.73144531
0.37475586 0.24609375 -0.73144531
0.37768555 0.24584961 -0.73046875
0.38110352 0.24584961 -0.73046875
0.38452148 0.24584961 -0.73046875
0.38745117 0.2454834 -0.72949219
0.39086914 0.2454834 -0.72949219
0.39428711 0.2454834 -0.72949219
0.39770508 0.2454834 -0.72949219
0.40112305 0.2454834 -0.72949219
0.40454102 0.2454834 -0.72949219
0.40795898 0.2454834 -0.72949219
0.41186523 0.24584961 -0.73046875
0.4152832 0.24584961 -0.73046875
0.41870117 0.24584961 -0.73046875
0.42211914 0.24584961 -0.73046875
0.42553711 0.24584961 -0.73046875
0.42895508 0.24584961 -0.73046875
0.43188477 0.2454834 -0.72949219
0.43530273 0.2454834 -0.72949219
0.4387207 0.2454834 -0.72949219
0.44213867 0.2454834 -0.72949219
0.4453125 0.2454834 -0.72949219
0.44873047 0.2454834 -0.72949219
0.45214844 0.2454834 -0.72949219
0.45556641 0.2454834 -0.72949219
0.45898438 0.2454834 -0.72949219
0.46240234 0.2454834 -0.72949219
0.41796875 0.20800781 -0.61816406
0.42016602 0.2076416 -0.6171875
0.42285156 0.2076416 -0.6171875
0.42504883 0.20727539 -0.61621094
0.42724609 0.20690918 -0.61523438
0.42944336 0.20666504 -0.61425781
0.43237305 0.20666504 -0.61425781
0.43457031 0.20629883 -0.61328125
0.43676758 0.20593262 -0.61230469
0.4387207 0.20556641 -0.61132812
0.44091797 0.20532227 -0.61035156
0.44238281 0.20458984 -0.60791016
0.44458008 0.20422363 -0.60693359
0.4465332 0.20385742 -0.60595703
0.44873047 0.20361328 -0.60498047
0.45068359 0.20324707 -0.60400391
0.45288086 0.20288086 -0.60302734
0.45483398 0.20251465 -0.60205078
0.45703125 0.20227051 -0.60107422
0.45898438 0.2019043 -0.60009766
0.4609375 0.20153809 -0.59912109
0.46313477 0.20117188 -0.59814453
0.46508789 0.20092773 -0.59716797
0.46704102 0.20056152 -0.59619141
0.46899414 0.20019531 -0.59521484
0.47094727 0.1998291 -0.59423828
0.47290039 0.19958496 -0.59326172
0.47485352 0.19921875 -0.59228516
0.47680664 0.19885254 -0.59130859
0.47875977 0.19848633 -0.58984375
0.48071289 0.19812012 -0.58886719
0.48266602 0.19787598 -0.58789062
0.48461914 0.19750977 -0.58691406
0.48657227 0.19714355 -0.5859375
0.48852539 0.19677734 -0.58496094
0.49047852 0.1965332 -0.58398438
0.4921875 0.19616699 -0.58300781
0.49414062 0.19580078 -0.58203125
0.49609375 0.19543457 -0.58105469
0.49780273 0.19519043 -0.58007812
0.49975586 0.19482422 -0.57910156
0.50146484 0.19445801 -0.578125
0.50390625 0.19445801 -0.578125
0.50585938 0.1940918 -0.57714844
0.5078125 0.19372559 -0.57617188
0.50976562 0.19348145 -0.57519531
0.51123047 0.19311523 -0.57421875
0.51318359 0.19274902 -0.57275391
0.51513672 0.19238281 -0.57177734
0.51660156 0.19213867 -0.57080078
0.51855469 0.19177246 -0.56982422
0.52099609 0.19177246 -0.56982422
0.52294922 0.19140625 -0.56884766
0.52441406 0.19104004 -0.56787109
0.52636719 0.1907959 -0.56689453
0.52783203 0.19042969 -0.56591797
0.52978516 0.19006348 -0.56494141
0.53125 0.18969727 -0.56396484
0.53417969 0.18969727 -0.56396484
0.53564453 0.18945312 -0.56298828
0.53759766 0.18908691 -0.56201172
0.54003906 0.18908691 -0.56201172
0.54150391 0.1887207 -0.56103516
0.54345703 0.18835449 -0.56005859
0.54589844 0.18835449 -0.56005859
0.54736328 0.18798828 -0.55908203
0.55029297 0.18798828 -0.55908203
0.55273438 0.18798828 -0.55908203
-2.4316406 0.87011719 -2.6230469
-2.4199219 0.87011719 -2.6230469
-2.4082031 0.87060547 -2.625
-2.3964844 0.87109375 -2.625
-2.3847656 0.87109375 -2.6269531
-2.375 0.87207031 -2.6289062
-2.3632812 0.87207031 -2.6289062
-2.3515625 0.87255859 -2.6308594
-2.3417969 0.87304688 -2.6308594
-2.328125 0.87304688 -2.6308594
-2.3164062 0.87304688 -2.6308594
-2.3027344 0.87255859 -2.6308594
-2.2890625 0.87207031 -2.6289062
-2.2753906 0.87158203 -2.6269531
-2.2636719 0.87109375 -2.6269531
-2.2480469 0.87060547 -2.625
-2.2363281 0.87060547 -2.625
-2.2226562 0.87011719 -2.6230469
-2.2109375 0.87011719 -2.6230469
-2.1992188 0.87011719 -2.6230469
-2.1875 0.87011719 -2.6230469
-2.1738281 0.87011719 -2.6230469
-2.1621094 0.87011719 -2.6230469
-2.1484375 0.86962891 -2.6210938
-2.1347656 0.86914062 -2.6191406
-2.1230469 0.86914062 -2.6191406
-2.109375 0.86865234 -2.6191406
-2.0957031 0.86816406 -2.6171875
-2.0839844 0.86816406 -2.6171875
-2.0722656 0.86865234 -2.6191406
-2.0605469 0.86865234 -2.6191406
-2.0488281 0.86914062 -2.6191406
-2.0371094 0.86914062 -2.6210938
-2.0253906 0.86962891 -2.6210938
-2.0136719 0.86962891 -2.6210938
-2.0019531 0.86962891 -2.6210938
-1.9902344 0.87011719 -2.6230469
-1.9775391 0.86962891 -2.6210938
-1.9648438 0.86962891 -2.6210938
-1.953125 0.86962891 -2.6210938
-1.9394531 0.86914062 -2.6210938
-1.9277344 0.86914062 -2.6210938
-1.9150391 0.86914062 -2.6210938
-1.9033203 0.86962891 -2.6210938
-1.8916016 0.87011719 -2.6230469
-1.8808594 0.87060547 -2.625
-1.8701172 0.87109375 -2.625
-1.8583984 0.87109375 -2.6269531
-1.8457031 0.87109375 -2.6269531
-1.8339844 0.87109375 -2.6269531
-1.8212891 0.87109375 -2.6269531
-1.8085938 0.87109375 -2.625
-1.7949219 0.87060547 -2.625
-1.7822266 0.87011719 -2.6230469
-1.7685547 0.86962891 -2.6210938
-1.7558594 0.86914062 -2.6210938
-1.7431641 0.86914062 -2.6191406
-1.7304688 0.86865234 -2.6191406
-1.7177734 0.86865234 -2.6191406
-1.7060547 0.86865234 -2.6191406
-1.6933594 0.86865234 -2.6191406
-1.6806641 0.86865234 -2.6191406
-1.6689453 0.86865234 -2.6191406
-1.65625 0.86865234 -2.6191406
-1.6445312 0.86865234 -2.6191406
-1.6318359 0.86865234 -2.6191406
-1.6201172 0.86865234 -2.6191406
-1.6074219 0.86865234 -2.6191406
-1.5957031 0.86865234 -2.6191406
-1.5830078 0.86816406 -2.6171875
-1.5693359 0.86816406 -2.6171875
-1.5566406 0.86767578 -2.6152344
-1.5439453 0.8671875 -2.6132812
-1.5302734 0.86669922 -2.6113281
-1.5175781 0.86621094 -2.6113281
-1.5048828 0.86572266 -2.609375
-1.4921875 0.86572266 -2.609375
-1.4785156 0.86474609 -2.6074219
-1.4658203 0.86474609 -2.6054688
-1.453125 0.86425781 -2.6054688
-1.4404297 0.86376953 -2.6035156
-1.4277344 0.86376953 -2.6035156
-1.4160156 0.86376953 -2.6035156
-1.4033203 0.86328125 -2.6015625
-1.390625 0.86279297 -2.6015625
-1.3779297 0.86279297 -2.5996094
-1.3652344 0.86230469 -2.5996094
-1.3525391 0.86181641 -2.5976562
-1.3398438 0.86181641 -2.5976562
-1.328125 0.86181641 -2.5976562
-1.3164062 0.86230469 -2.5996094
-1.3056641 0.86279297 -2.6015625
-1.2949219 0.86376953 -2.6035156
-1.2832031 0.86474609 -2.6054688
-1.2724609 0.86572266 -2.609375
-1.2617188 0.86621094 -2.6113281
-1.25 0.86669922 -2.6132812
-1.2392578 0.86767578 -2.6152344
-1.2265625 0.86767578 -2.6152344
-1.2148438 0.86816406 -2.6171875
-1.2021484 0.86767578 -2.6152344
-1.1904297 0.86767578 -2.6152344
-1.1777344 0.8671875 -2.6132812
-1.1650391 0.86669922 -2.6132812
-1.1513672 0.86621094 -2.6113281
-1.1386719 0.86572266 -2.609375
-1.1259766 0.86474609 -2.6074219
-1.1132812 0.86474609 -2.6054688
-1.1005859 0.86425781 -2.6054688
-1.0878906 0.86425781 -2.6054688
-1.0761719 0.86474609 -2.6054688
-1.0644531 0.86474609 -2.6074219
-1.0527344 0.86474609 -2.6074219
-1.0400391 0.86474609 -2.6074219
-1.0283203 0.86474609 -2.6074219
-1.0146484 0.86425781 -2.6054688
-1.0019531 0.86328125 -2.6015625
-0.98876953 0.86230469 -2.5996094
-0.97509766 0.86083984 -2.5957031
-0.96191406 0.86035156 -2.59375
-0.94970703 0.85986328 -2.5917969
-0.9375 0.85986328 -2.5917969
-0.92626953 0.86083984 -2.59375
-0.91503906 0.86181641 -2.5976562
-0.90380859 0.86279297 -2.5996094
-0.89257812 0.86328125 -2.6015625
-0.88037109 0.86376953 -2.6035156
-0.86914062 0.86425781 -2.6054688
-0.85742188 0.86474609 -2.6054688
-0.84570312 0.86523438 -2.6074219
-0.83398438 0.86572266 -2.609375
-0.82226562 0.86621094 -2.6113281
-0.81054688 0.86669922 -2.6132812
-0.79931641 0.86816406 -2.6171875
-0.78759766 0.86865234 -2.6191406
-0.77587891 0.86914062 -2.6210938
-0.76416016 0.86962891 -2.6210938
-0.75195312 0.87011719 -2.6230469
-0.73974609 0.87011719 -2.6230469
-0.72705078 0.86914062 -2.6210938
-0.71435547 0.86865234 -2.6191406
-0.70166016 0.86816406 -2.6171875
-0.68896484 0.8671875 -2.6132812
-0.67578125 0.86621094 -2.6113281
-0.66308594 0.86572266 -2.609375
-0.65087891 0.86572266 -2.609375
-0.63867188 0.86572266 -2.609375
-0.62646484 0.86572266 -2.609375
-0.61425781 0.86572266 -2.609375
-0.60253906 0.86621094 -2.6113281
-0.59033203 0.86621094 -2.6113281
-0.578125 0.86621094 -2.6113281
-0.56591797 0.86621094 -2.6113281
-0.55371094 0.86572266 -2.609375
-0.54150391 0.86572266 -2.609375
-0.52929688 0.86621094 -2.6113281
-0.51708984 0.86621094 -2.6113281
-0.50488281 0.86669922 -2.6113281
-0.49316406 0.86669922 -2.6132812
-0.48095703 0.86669922 -2.6132812
-0.46899414 0.8671875 -2.6132812
-0.45654297 0.86669922 -2.6132812
-0.44433594 0.86669922 -2.6132812
-0.43164062 0.86621094 -2.6113281
-0.41943359 0.86572266 -2.609375
-0.40673828 0.86523438 -2.6074219
-0.39428711 0.86474609 -2.6054688
-0.38183594 0.86376953 -2.6035156
-0.36938477 0.86328125 -2.6015625
-0.35693359 0.86279297 -2.5996094
-0.34448242 0.86181641 -2.5976562
-0.33203125 0.86132812 -2.5957031
-0.31982422 0.86083984 -2.59375
-0.30761719 0.86035156 -2.59375
-0.29638672 0.86328125 -2.6015625
-0.28344727 0.86083984 -2.5957031
-0.27148438 0.86132812 -2.5957031
-0.25952148 0.86181641 -2.5976562
-0.24743652 0.86181641 -2.5976562
-0.23535156 0.86230469 -2.5996094
-0.2232666 0.86230469 -2.5996094
-0.21081543 0.86132812 -2.5957031
-0.19848633 0.86035156 -2.59375
-0.18591309 0.85839844 -2.5878906
-0.17346191 0.85644531 -2.5820312
-0.16101074 0.85449219 -2.5742188
-0.14868164 0.85302734 -2.5703125
-0.13598633 0.84863281 -2.5585938
0.033050537 0.24365234 -0.73486328
0.036468506 0.24365234 -0.73486328
0.039916992 0.24365234 -0.73486328
0.043273926 0.2434082 -0.73339844
0.046722412 0.2434082 -0.73339844
0.050140381 0.2434082 -0.73339844
0.053588867 0.2434082 -0.73339844
0.057006836 0.2434082 -0.73339844
0.060424805 0.2434082 -0.73339844
0.063781738 0.24304199 -0.73242188
0.067199707 0.24304199 -0.73242188
0.070617676 0.24304199 -0.73242188
0.073913574 0.24267578 -0.73144531
0.077331543 0.24267578 -0.73144531
0.080749512 0.24267578 -0.73144531
0.08416748 0.24267578 -0.73144531
0.08770752 0.24304199 -0.73242188
0.091186523 0.24304199 -0.73242188
0.094604492 0.24304199 -0.73242188
0.098144531 0.2434082 -0.73339844
0.1015625 0.2434082 -0.73339844
0.10498047 0.2434082 -0.73339844
0.10845947 0.2434082 -0.73339844
0.11187744 0.2434082 -0.73339844
0.11529541 0.2434082 -0.73339844
0.11853027 0.24304199 -0.73242188
0.12200928 0.24304199 -0.73242188
0.12524414 0.24267578 -0.73144531
0.12866211 0.24267578 -0.73144531
0.13208008 0.24267578 -0.73144531
0.13525391 0.24243164 -0.73046875
0.16625977 0.24267578 -0.73144531
0.16967773 0.24267578 -0.73144531
0.17333984 0.24304199 -0.73242188
0.17675781 0.24304199 -0.73242188
0.18017578 0.24304199 -0.73242188
0.18359375 0.24304199 -0.73242188
0.18701172 0.24304199 -0.73242188
0.19042969 0.24304199 -0.73242188
0.19384766 0.24304199 -0.73242188
0.19702148 0.24267578 -0.73144531
0.20043945 0.24267578 -0.73144531
0.20361328 0.24243164 -0.73046875
0.20703125 0.24243164 -0.73046875
0.21008301 0.24206543 -0.72949219
0.21350098 0.24206543 -0.72949219
0.2166748 0.24169922 -0.72851562
0.25927734 0.2434082 -0.73339844
0.26269531 0.2434082 -0.73339844
0.26611328 0.2434082 -0.73339844
0.26953125 0.2434082 -0.73339844
0.27294922 0.2434082 -0.73339844
0.27636719 0.2434082 -0.73339844
0.27978516 0.2434082 -0.73339844
0.28295898 0.24304199 -0.73242188
0.28637695 0.24304199 -0.73242188
0.28979492 0.24304199 -0.73242188
0.29321289 0.24304199 -0.73242188
0.29663086 0.24304199 -0.73242188
0.29956055 0.24267578 -0.73144531
0.30297852 0.24267578 -0.73144531
0.30639648 0.24267578 -0.73144531
0.30981445 0.24267578 -0.73144531
0.31323242 0.24267578 -0.73144531
0.31665039 0.24267578 -0.73144531
0.32006836 0.24267578 -0.73144531
0.32348633 0.24267578 -0.73144531
0.3269043 0.24267578 -0.73144531
0.33032227 0.24267578 -0.73144531
0.33374023 0.24267578 -0.73144531
0.3371582 0.24267578 -0.73144531
0.34057617 0.24267578 -0.73144531
0.34399414 0.24267578 -0.73144531
0.34741211 0.24267578 -0.73144531
0.35083008 0.24267578 -0.73144531
0.35424805 0.24267578 -0.73144531
0.35766602 0.24267578 -0.73144531
0.36108398 0.24267578 -0.73144531
0.36450195 0.24267578 -0.73144531
0.36791992 0.24267578 -0.73144531
0.37133789 0.24267578 -0.73144531
0.37475586 0.24267578 -0.73144531
0.37817383 0.24267578 -0.73144531
0.38110352 0.24243164 -0.73046875
0.38452148 0.24243164 -0.73046875
0.38793945 0.24243164 -0.73046875
0.39086914 0.24206543 -0.72949219
0.39428711 0.24206543 -0.72949219
0.39770508 0.24206543 -0.72949219
0.40112305 0.24206543 -0.72949219
0.4050293 0.24243164 -0.73046875
0.40844727 0.24243164 -0.73046875
0.41186523 0.24243164 -0.73046875
0.4152832 0.24243164 -0.73046875
0.41870117 0.24243164 -0.73046875
0.42211914 0.24243164 -0.73046875
0.42553711 0.24243164 -0.73046875
0.42895508 0.24243164 -0.73046875
0.43237305 0.24243164 -0.73046875
0.43579102 0.24243164 -0.73046875
0.43920898 0.24243164 -0.73046875
0.44213867 0.24206543 -0.72949219
0.4453125 0.24206543 -0.72949219
0.44873047 0.24206543 -0.72949219
0.45214844 0.24206543 -0.72949219
0.45556641 0.24206543 -0.72949219
0.45898438 0.24206543 -0.72949219
0.41796875 0.20507812 -0.61816406
0.4206543 0.20507812 -0.61816406
0.42285156 0.20471191 -0.6171875
0.42578125 0.20471191 -0.6171875
0.42797852 0.20446777 -0.61621094
0.43017578 0.20410156 -0.61523438
0.43237305 0.20373535 -0.61425781
0.43457031 0.20336914 -0.61328125
0.43676758 0.203125 -0.61230469
0.4387207 0.20275879 -0.61132812
0.44091797 0.20239258 -0.61035156
0.44311523 0.20202637 -0.609375
0.4453125 0.20178223 -0.60791016
0.44726562 0.20141602 -0.60693359
0.44946289 0.2010498 -0.60595703
0.45141602 0.20080566 -0.60498047
0.45361328 0.20043945 -0.60400391
0.45556641 0.20007324 -0.60302734
0.45776367 0.19970703 -0.60205078
0.4597168 0.19946289 -0.60107422
0.46166992 0.19909668 -0.60009766
0.46386719 0.19873047 -0.59912109
0.46582031 0.19836426 -0.59814453
0.46704102 0.19775391 -0.59619141
0.46899414 0.1973877 -0.59521484
0.47192383 0.1973877 -0.59521484
0.47387695 0.19714355 -0.59423828
0.47583008 0.19677734 -0.59326172
0.4777832 0.19641113 -0.59228516
0.47973633 0.19604492 -0.59130859
0.48071289 0.19543457 -0.58886719
0.48266602 0.19506836 -0.58789062
0.48461914 0.19470215 -0.58691406
0.48657227 0.19445801 -0.5859375
0.48852539 0.1940918 -0.58496094
0.49047852 0.19372559 -0.58398438
0.4921875 0.19348145 -0.58300781
0.49414062 0.19311523 -0.58203125
0.49609375 0.19274902 -0.58105469
0.49780273 0.19238281 -0.58007812
0.49975586 0.19213867 -0.57910156
0.50244141 0.19213867 -0.57910156
0.50390625 0.19177246 -0.578125
0.50585938 0.19140625 -0.57714844
0.5078125 0.19104004 -0.57617188
0.50976562 0.1907959 -0.57519531
0.51123047 0.19042969 -0.57421875
0.51318359 0.19006348 -0.57275391
0.51513672 0.18981934 -0.57177734
0.51660156 0.18945312 -0.57080078
0.51953125 0.18945312 -0.57080078
0.52099609 0.18908691 -0.56982422
0.52294922 0.1887207 -0.56884766
0.52441406 0.18847656 -0.56787109
0.52636719 0.18811035 -0.56689453
0.52783203 0.18774414 -0.56591797
0.52978516 0.18737793 -0.56494141
0.53125 0.18713379 -0.56396484
0.53320312 0.18676758 -0.56298828
0.53564453 0.18676758 -0.56298828
0.53759766 0.18640137 -0.56201172
0.5390625 0.18615723 -0.56103516
0.54150391 0.18615723 -0.56103516
0.54345703 0.18579102 -0.56005859
0.54492188 0.1854248 -0.55908203
0.54736328 0.1854248 -0.55908203
0.54931641 0.18505859 -0.55810547
0.55175781 0.18505859 -0.55810547
-2.4316406 0.85791016 -2.6230469
-2.4199219 0.85839844 -2.625
-2.4101562 0.85888672 -2.6269531
-2.3984375 0.859375 -2.6269531
-2.3867188 0.85986328 -2.6289062
-2.3769531 0.85986328 -2.6289062
-2.3652344 0.86035156 -2.6308594
-2.3535156 0.86083984 -2.6328125
-2.3417969 0.86132812 -2.6328125
-2.3300781 0.86132812 -2.6328125
-2.3164062 0.86083984 -2.6328125
-2.3046875 0.86083984 -2.6308594
-2.2910156 0.86035156 -2.6308594
-2.2773438 0.85986328 -2.6289062
-2.2636719 0.85888672 -2.6269531
-2.25 0.85888672 -2.625
-2.2363281 0.85839844 -2.625
-2.2226562 0.85791016 -2.6230469
-2.2128906 0.85839844 -2.625
-2.1992188 0.85839844 -2.625
-2.1875 0.85839844 -2.625
-2.1757812 0.85839844 -2.625
-2.1621094 0.85839844 -2.625
-2.1503906 0.85791016 -2.6230469
-2.1367188 0.85791016 -2.6230469
-2.1230469 0.85742188 -2.6210938
-2.1113281 0.85742188 -2.6210938
-2.0976562 0.85693359 -2.6210938
-2.0859375 0.85693359 -2.6210938
-2.0742188 0.85742188 -2.6210938
-2.0625 0.85742188 -2.6210938
-2.0507812 0.85791016 -2.6230469
-2.0390625 0.85791016 -2.6230469
-2.0273438 0.85791016 -2.6230469
-2.0136719 0.85791016 -2.6230469
-2.0019531 0.85791016 -2.6230469
-1.9902344 0.85791016 -2.6230469
-1.9775391 0.85742188 -2.6210938
-1.9648438 0.85742188 -2.6210938
-1.9521484 0.85693359 -2.6210938
-1.9384766 0.85693359 -2.6191406
-1.9257812 0.85644531 -2.6191406
-1.9140625 0.85644531 -2.6191406
-1.9013672 0.85644531 -2.6191406
-1.8896484 0.85693359 -2.6191406
-1.8779297 0.85693359 -2.6210938
-1.8671875 0.85791016 -2.6230469
-1.8554688 0.85791016 -2.6230469
-1.84375 0.85791016 -2.6230469
-1.8310547 0.85791016 -2.6230469
-1.8193359 0.85791016 -2.6230469
-1.8066406 0.85791016 -2.6230469
-1.7939453 0.85791016 -2.6230469
-1.78125 0.85742188 -2.6210938
-1.7685547 0.85693359 -2.6210938
-1.7548828 0.85693359 -2.6191406
-1.7421875 0.85644531 -2.6191406
-1.7304688 0.85644531 -2.6191406
-1.7177734 0.85644531 -2.6191406
-1.7060547 0.85644531 -2.6191406
-1.6943359 0.85693359 -2.6191406
-1.6816406 0.85693359 -2.6191406
-1.6699219 0.85693359 -2.6191406
-1.6582031 0.85693359 -2.6210938
-1.6455078 0.85693359 -2.6210938
-1.6337891 0.85693359 -2.6210938
-1.6210938 0.85693359 -2.6210938
-1.6083984 0.85693359 -2.6210938
-1.5966797 0.85693359 -2.6210938
-1.5839844 0.85693359 -2.6191406
-1.5712891 0.85644531 -2.6191406
-1.5576172 0.85546875 -2.6171875
-1.5449219 0.85546875 -2.6152344
-1.53125 0.85449219 -2.6132812
-1.5185547 0.85449219 -2.6113281
-1.5058594 0.85400391 -2.6113281
-1.4921875 0.85351562 -2.609375
-1.4794922 0.85302734 -2.6074219
-1.4658203 0.85253906 -2.6054688
-1.453125 0.85205078 -2.6054688
-1.4404297 0.8515625 -2.6035156
-1.4277344 0.8515625 -2.6035156
-1.4160156 0.8515625 -2.6035156
-1.4033203 0.85107422 -2.6015625
-1.390625 0.85107422 -2.6015625
-1.3779297 0.85058594 -2.6015625
-1.3652344 0.85058594 -2.5996094
-1.3525391 0.85009766 -2.5996094
-1.3408203 0.85009766 -2.5996094
-1.3291016 0.85058594 -2.5996094
-1.3183594 0.85107422 -2.6015625
-1.3066406 0.8515625 -2.6035156
-1.2958984 0.85253906 -2.6074219
-1.2851562 0.85351562 -2.609375
-1.2744141 0.85449219 -2.6132812
-1.2636719 0.85546875 -2.6171875
-1.2529297 0.85644531 -2.6191406
-1.2412109 0.85693359 -2.6191406
-1.2294922 0.85693359 -2.6210938
-1.2167969 0.85693359 -2.6210938
-1.2041016 0.85693359 -2.6191406
-1.1923828 0.85693359 -2.6191406
-1.1787109 0.85595703 -2.6171875
-1.1660156 0.85546875 -2.6171875
-1.1533203 0.85498047 -2.6132812
-1.1396484 0.85400391 -2.6113281
-1.1259766 0.85351562 -2.609375
-1.1132812 0.85302734 -2.6074219
-1.1015625 0.85253906 -2.6074219
-1.0888672 0.85253906 -2.6054688
-1.0771484 0.85253906 -2.6074219
-1.0644531 0.85253906 -2.6074219
-1.0527344 0.85302734 -2.6074219
-1.0410156 0.85302734 -2.6074219
-1.0283203 0.85253906 -2.6074219
-1.015625 0.85253906 -2.6054688
-1.0019531 0.8515625 -2.6035156
-0.98925781 0.85058594 -2.6015625
-0.97607422 0.84960938 -2.5976562
-0.96337891 0.84912109 -2.5957031
-0.95068359 0.84863281 -2.5957031
-0.93847656 0.84863281 -2.5957031
-0.92724609 0.84960938 -2.5976562
-0.91601562 0.85058594 -2.5996094
-0.90478516 0.85107422 -2.6015625
-0.89306641 0.8515625 -2.6035156
-0.88134766 0.85205078 -2.6054688
-0.86962891 0.85253906 -2.6074219
-0.85791016 0.85302734 -2.6074219
-0.84619141 0.85351562 -2.609375
-0.83447266 0.85400391 -2.6113281
-0.82275391 0.85449219 -2.6132812
-0.81152344 0.85546875 -2.6152344
-0.79980469 0.85595703 -2.6171875
-0.78857422 0.85693359 -2.6210938
-0.77685547 0.85791016 -2.6230469
-0.76464844 0.85791016 -2.6230469
-0.75292969 0.85839844 -2.625
-0.74023438 0.85791016 -2.6230469
-0.72753906 0.85791016 -2.6230469
-0.71435547 0.85693359 -2.6191406
-0.70166016 0.85595703 -2.6171875
-0.68896484 0.85498047 -2.6132812
-0.67578125 0.85400391 -2.6113281
-0.66308594 0.85351562 -2.609375
-0.65087891 0.85351562 -2.609375
-0.63867188 0.85351562 -2.609375
-0.62646484 0.85351562 -2.609375
-0.61425781 0.85351562 -2.609375
-0.60205078 0.85351562 -2.609375
-0.59033203 0.85351562 -2.609375
-0.578125 0.85351562 -2.609375
-0.56591797 0.85351562 -2.609375
-0.55371094 0.85351562 -2.609375
-0.54150391 0.85351562 -2.609375
-0.52929688 0.85400391 -2.6113281
-0.51708984 0.85449219 -2.6113281
-0.50537109 0.85449219 -2.6132812
-0.49316406 0.85449219 -2.6132812
-0.48095703 0.85449219 -2.6132812
-0.46875 0.85449219 -2.6132812
-0.45654297 0.85449219 -2.6132812
-0.4440918 0.85449219 -2.6113281
-0.43164062 0.85351562 -2.609375
-0.41918945 0.85351562 -2.609375
-0.40673828 0.85302734 -2.6074219
-0.39428711 0.85253906 -2.6054688
-0.38183594 0.8515625 -2.6035156
-0.36938477 0.85107422 -2.6015625
-0.35693359 0.85058594 -2.5996094
-0.34448242 0.84960938 -2.5976562
-0.33203125 0.84863281 -2.5957031
-0.31958008 0.84814453 -2.59375
-0.30737305 0.84765625 -2.5917969
-0.29492188 0.84667969 -2.5898438
-0.28320312 0.84765625 -2.5917969
-0.27124023 0.84814453 -2.59375
-0.25927734 0.84863281 -2.5957031
-0.24731445 0.84960938 -2.5976562
-0.23522949 0.84960938 -2.5976562
-0.22314453 0.84960938 -2.5976562
-0.2109375 0.84960938 -2.5976562
-0.19848633 0.84814453 -2.59375
-0.18603516 0.84667969 -2.5878906
-0.17358398 0.84472656 -2.5839844
-0.16113281 0.84277344 -2.5761719
-0.14868164 0.84082031 -2.5703125
-0.13623047 0.83789062 -2.5625
0.033050537 0.24023438 -0.73486328
0.036468506 0.24023438 -0.73486328
0.039916992 0.24023438 -0.73486328
0.043334961 0.24023438 -0.73486328
0.046722412 0.23999023 -0.73339844
0.050140381 0.23999023 -0.73339844
0.053588867 0.23999023 -0.73339844
0.057006836 0.23999023 -0.73339844
0.060424805 0.23999023 -0.73339844
0.063781738 0.23962402 -0.73242188
0.067199707 0.23962402 -0.73242188
0.070617676 0.23962402 -0.73242188
0.074035645 0.23962402 -0.73242188
0.077331543 0.23925781 -0.73144531
0.080749512 0.23925781 -0.73144531
0.084289551 0.23962402 -0.73242188
0.08770752 0.23962402 -0.73242188
0.091186523 0.23962402 -0.73242188
0.094726562 0.23999023 -0.73339844
0.098144531 0.23999023 -0.73339844
0.1015625 0.23999023 -0.73339844
0.10498047 0.23999023 -0.73339844
0.10845947 0.23999023 -0.73339844
0.11187744 0.23999023 -0.73339844
0.11529541 0.23999023 -0.73339844
0.11871338 0.23999023 -0.73339844
0.12200928 0.23962402 -0.73242188
0.12536621 0.23962402 -0.73242188
0.12878418 0.23962402 -0.73242188
0.13208008 0.23925781 -0.73144531
0.13525391 0.23901367 -0.73046875
0.1628418 0.23925781 -0.73144531
0.16625977 0.23925781 -0.73144531
0.16967773 0.23925781 -0.73144531
0.1730957 0.23925781 -0.73144531
0.17675781 0.23962402 -0.73242188
0.18017578 0.23962402 -0.73242188
0.18359375 0.23962402 -0.73242188
0.18701172 0.23962402 -0.73242188
0.19042969 0.23962402 -0.73242188
0.19384766 0.23962402 -0.73242188
0.19702148 0.23925781 -0.73144531
0.20043945 0.23925781 -0.73144531
0.20385742 0.23925781 -0.73144531
0.20703125 0.23901367 -0.73046875
0.21008301 0.23864746 -0.72949219
0.21350098 0.23864746 -0.72949219
0.21691895 0.23864746 -0.72949219
0.25585938 0.23999023 -0.73339844
0.25927734 0.23999023 -0.73339844
0.26269531 0.23999023 -0.73339844
0.26611328 0.23999023 -0.73339844
0.26953125 0.23999023 -0.73339844
0.27294922 0.23999023 -0.73339844
0.27636719 0.23999023 -0.73339844
0.27978516 0.23999023 -0.73339844
0.28320312 0.23999023 -0.73339844
0.28637695 0.23962402 -0.73242188
0.28979492 0.23962402 -0.73242188
0.29321289 0.23962402 -0.73242188
0.29663086 0.23962402 -0.73242188
0.29956055 0.23925781 -0.73144531
0.30297852 0.23925781 -0.73144531
0.30639648 0.23925781 -0.73144531
0.30981445 0.23925781 -0.73144531
0.31323242 0.23925781 -0.73144531
0.31665039 0.23925781 -0.73144531
0.32006836 0.23925781 -0.73144531
0.32348633 0.23925781 -0.73144531
0.3269043 0.23925781 -0.73144531
0.33032227 0.23925781 -0.73144531
0.33422852 0.23962402 -0.73242188
0.33764648 0.23962402 -0.73242188
0.34106445 0.23962402 -0.73242188
0.34448242 0.23962402 -0.73242188
0.34790039 0.23962402 -0.73242188
0.35083008 0.23925781 -0.73144531
0.35424805 0.23925781 -0.73144531
0.35766602 0.23925781 -0.73144531
0.36108398 0.23925781 -0.73144531
0.36450195 0.23925781 -0.73144531
0.36791992 0.23925781 -0.73144531
0.37133789 0.23925781 -0.73144531
0.37475586 0.23925781 -0.73144531
0.37817383 0.23925781 -0.73144531
0.38110352 0.23901367 -0.73046875
0.38452148 0.23901367 -0.73046875
0.38793945 0.23901367 -0.73046875
0.39135742 0.23901367 -0.73046875
0.39477539 0.23901367 -0.73046875
0.39819336 0.23901367 -0.73046875
0.40161133 0.23901367 -0.73046875
0.4050293 0.23901367 -0.73046875
0.40844727 0.23901367 -0.73046875
0.41186523 0.23901367 -0.73046875
0.4152832 0.23901367 -0.73046875
0.41870117 0.23901367 -0.73046875
0.42211914 0.23901367 -0.73046875
0.42553711 0.23901367 -0.73046875
0.42944336 0.23925781 -0.73144531
0.43286133 0.23925781 -0.73144531
0.43579102 0.23901367 -0.73046875
0.43920898 0.23901367 -0.73046875
0.44262695 0.23901367 -0.73046875
0.4453125 0.23864746 -0.72949219
0.44873047 0.23864746 -0.72949219
0.41845703 0.20251465 -0.61914062
0.4206543 0.20214844 -0.61816406
0.42358398 0.20214844 -0.61816406
0.42578125 0.2019043 -0.6171875
0.42797852 0.20153809 -0.61621094
0.43017578 0.20117188 -0.61523438
0.43237305 0.20092773 -0.61425781
0.43530273 0.20092773 -0.61425781
0.4375 0.20056152 -0.61328125
0.43945312 0.20019531 -0.61230469
0.44165039 0.19995117 -0.61132812
0.44384766 0.19958496 -0.61035156
0.4453125 0.19885254 -0.60791016
0.44726562 0.1986084 -0.60693359
0.44946289 0.19824219 -0.60595703
0.45141602 0.19787598 -0.60498047
0.45361328 0.19763184 -0.60400391
0.45556641 0.19726562 -0.60302734
0.45776367 0.19689941 -0.60205078
0.4597168 0.19665527 -0.60107422
0.46166992 0.19628906 -0.60009766
0.46386719 0.19592285 -0.59912109
0.46582031 0.19567871 -0.59814453
0.46777344 0.1953125 -0.59716797
0.46972656 0.19494629 -0.59619141
0.47192383 0.19458008 -0.59521484
0.47387695 0.19433594 -0.59423828
0.47583008 0.19396973 -0.59326172
0.4777832 0.19360352 -0.59228516
0.47973633 0.19335938 -0.59130859
0.48168945 0.19299316 -0.58984375
0.48364258 0.19262695 -0.58886719
0.4855957 0.19238281 -0.58789062
0.48730469 0.1920166 -0.58691406
0.48925781 0.19165039 -0.5859375
0.49121094 0.19140625 -0.58496094
0.49316406 0.19104004 -0.58398438
0.49414062 0.19042969 -0.58203125
0.49609375 0.19006348 -0.58105469
0.49780273 0.18969727 -0.58007812
0.50048828 0.18969727 -0.58007812
0.50244141 0.18933105 -0.57910156
0.50390625 0.18908691 -0.578125
0.50585938 0.1887207 -0.57714844
0.50878906 0.1887207 -0.57714844
0.51025391 0.18835449 -0.57617188
0.51220703 0.18811035 -0.57519531
0.51416016 0.18774414 -0.57421875
0.515625 0.18737793 -0.57275391
0.51757812 0.18713379 -0.57177734
0.51953125 0.18676758 -0.57080078
0.52099609 0.18640137 -0.56982422
0.52294922 0.18615723 -0.56884766
0.52441406 0.18579102 -0.56787109
0.52636719 0.1854248 -0.56689453
0.52783203 0.18505859 -0.56591797
0.52978516 0.18481445 -0.56494141
0.53125 0.18444824 -0.56396484
0.53320312 0.18408203 -0.56298828
0.53564453 0.18408203 -0.56298828
0.53759766 0.18383789 -0.56201172
0.5390625 0.18347168 -0.56103516
0.54052734 0.18310547 -0.56005859
0.54248047 0.18286133 -0.55908203
0.54492188 0.18286133 -0.55908203
0.54638672 0.18249512 -0.55810547
0.54931641 0.18249512 -0.55810547
0.55175781 0.18249512 -0.55810547
-2.421875 0.84619141 -2.625
-2.4101562 0.84716797 -2.6269531
-2.4003906 0.84716797 -2.6289062
-2.3886719 0.84814453 -2.6308594
-2.3769531 0.84814453 -2.6308594
-2.3671875 0.84863281 -2.6328125
-2.3554688 0.84912109 -2.6347656
-2.34375 0.84912109 -2.6347656
-2.3320312 0.84960938 -2.6347656
-2.3183594 0.84912109 -2.6347656
-2.3066406 0.84912109 -2.6328125
-2.2910156 0.84814453 -2.6308594
-2.2773438 0.84765625 -2.6289062
-2.2636719 0.84716797 -2.6269531
-2.25 0.84619141 -2.625
-2.2382812 0.84619141 -2.625
-2.2246094 0.84619141 -2.625
-2.2128906 0.84619141 -2.625
-2.2011719 0.84619141 -2.625
-2.1875 0.84619141 -2.625
-2.1777344 0.84667969 -2.6269531
-2.1640625 0.84667969 -2.6269531
-2.1523438 0.84619141 -2.625
-2.1386719 0.84619141 -2.625
-2.1269531 0.84619141 -2.625
-2.1132812 0.84570312 -2.6230469
-2.1015625 0.84570312 -2.6230469
-2.0878906 0.84570312 -2.6230469
-2.0761719 0.84570312 -2.6230469
-2.0644531 0.84570312 -2.6230469
-2.0527344 0.84619141 -2.625
-2.0410156 0.84619141 -2.625
-2.0273438 0.84619141 -2.625
-2.015625 0.84619141 -2.625
-2.0019531 0.84570312 -2.6230469
-1.9902344 0.84521484 -2.6230469
-1.9775391 0.84521484 -2.6210938
-1.9638672 0.84472656 -2.6210938
-1.9501953 0.84423828 -2.6191406
-1.9375 0.84375 -2.6171875
-1.9248047 0.84326172 -2.6171875
-1.9111328 0.84326172 -2.6152344
-1.8994141 0.84326172 -2.6152344
-1.8876953 0.84326172 -2.6171875
-1.8759766 0.84375 -2.6171875
-1.8642578 0.84423828 -2.6191406
-1.8525391 0.84423828 -2.6191406
-1.8408203 0.84423828 -2.6191406
-1.8291016 0.84472656 -2.6210938
-1.8173828 0.84472656 -2.6210938
-1.8056641 0.84521484 -2.6210938
-1.7929688 0.84472656 -2.6210938
-1.7802734 0.84472656 -2.6210938
-1.7675781 0.84423828 -2.6191406
-1.7548828 0.84423828 -2.6191406
-1.7412109 0.84375 -2.6171875
-1.7294922 0.84375 -2.6171875
-1.7177734 0.84423828 -2.6191406
-1.7060547 0.84423828 -2.6191406
-1.6943359 0.84423828 -2.6191406
-1.6826172 0.84472656 -2.6210938
-1.6708984 0.84521484 -2.6210938
-1.6582031 0.84521484 -2.6210938
-1.6464844 0.84521484 -2.6230469
-1.6347656 0.84521484 -2.6230469
-1.6220703 0.84521484 -2.6230469
-1.6103516 0.84521484 -2.6230469
-1.5976562 0.84521484 -2.6210938
-1.5839844 0.84472656 -2.6210938
-1.5712891 0.84423828 -2.6191406
-1.5576172 0.84375 -2.6171875
-1.5449219 0.84326172 -2.6171875
-1.5322266 0.84277344 -2.6132812
-1.5195312 0.84228516 -2.6132812
-1.5058594 0.84179688 -2.6113281
-1.4931641 0.84130859 -2.609375
-1.4804688 0.84130859 -2.609375
-1.4667969 0.84033203 -2.6074219
-1.4541016 0.84033203 -2.6054688
-1.4414062 0.83984375 -2.6054688
-1.4287109 0.83984375 -2.6054688
-1.4160156 0.83935547 -2.6035156
-1.4042969 0.83935547 -2.6035156
-1.3916016 0.83935547 -2.6035156
-1.3789062 0.83886719 -2.6015625
-1.3662109 0.83886719 -2.6015625
-1.3535156 0.83837891 -2.6015625
-1.3417969 0.83837891 -2.6015625
-1.3300781 0.83886719 -2.6015625
-1.3193359 0.83935547 -2.6035156
-1.3085938 0.84033203 -2.6074219
-1.2978516 0.84130859 -2.609375
-1.2871094 0.84228516 -2.6132812
-1.2763672 0.84326172 -2.6171875
-1.265625 0.84423828 -2.6191406
-1.2539062 0.84521484 -2.6210938
-1.2421875 0.84521484 -2.6230469
-1.2304688 0.84570312 -2.6230469
-1.21875 0.84570312 -2.6230469
-1.2060547 0.84570312 -2.6230469
-1.1933594 0.84521484 -2.6230469
-1.1796875 0.84472656 -2.6210938
-1.1669922 0.84423828 -2.6191406
-1.1542969 0.84326172 -2.6171875
-1.140625 0.84277344 -2.6132812
-1.1279297 0.84228516 -2.6113281
-1.1142578 0.84130859 -2.609375
-1.1015625 0.84130859 -2.609375
-1.0898438 0.84130859 -2.609375
-1.0771484 0.84082031 -2.6074219
-1.0654297 0.84130859 -2.609375
-1.0527344 0.84130859 -2.609375
-1.0410156 0.84082031 -2.6074219
-1.0283203 0.84082031 -2.6074219
-1.015625 0.84033203 -2.6054688
-1.0019531 0.83935547 -2.6035156
-0.98974609 0.83886719 -2.6015625
-0.9765625 0.83789062 -2.5996094
-0.96386719 0.83789062 -2.5976562
-0.95117188 0.83740234 -2.5976562
-0.93945312 0.83740234 -2.5976562
-0.92773438 0.83789062 -2.5996094
-0.91650391 0.83837891 -2.6015625
-0.90478516 0.83935547 -2.6035156
-0.89355469 0.83984375 -2.6054688
-0.88183594 0.84033203 -2.6074219
-0.87011719 0.84082031 -2.6074219
-0.85839844 0.84130859 -2.609375
-0.84667969 0.84179688 -2.6113281
-0.83496094 0.84228516 -2.6113281
-0.82324219 0.84277344 -2.6132812
-0.81152344 0.84326172 -2.6171875
-0.80029297 0.84423828 -2.6191406
-0.78857422 0.84521484 -2.6210938
-0.77685547 0.84570312 -2.6230469
-0.76513672 0.84619141 -2.625
-0.75292969 0.84619141 -2.625
-0.74072266 0.84619141 -2.625
-0.72802734 0.84570312 -2.6230469
-0.71484375 0.84472656 -2.6210938
-0.70166016 0.84375 -2.6171875
-0.68847656 0.84228516 -2.6132812
-0.67529297 0.84130859 -2.609375
-0.66259766 0.84082031 -2.6074219
-0.65039062 0.84082031 -2.6074219
-0.63818359 0.84033203 -2.6074219
-0.62597656 0.84082031 -2.6074219
-0.61425781 0.84082031 -2.6074219
-0.60205078 0.84130859 -2.609375
-0.58984375 0.84082031 -2.6074219
-0.57763672 0.84082031 -2.6074219
-0.56542969 0.84082031 -2.6074219
-0.55322266 0.84082031 -2.6074219
-0.54101562 0.84082031 -2.6074219
-0.52880859 0.84130859 -2.609375
-0.51708984 0.84130859 -2.609375
-0.50488281 0.84179688 -2.6113281
-0.49291992 0.84228516 -2.6113281
-0.48071289 0.84228516 -2.6113281
-0.46826172 0.84179688 -2.6113281
-0.45605469 0.84179688 -2.6113281
-0.44360352 0.84130859 -2.609375
-0.43115234 0.84082031 -2.6074219
-0.41894531 0.84033203 -2.6074219
-0.40649414 0.84033203 -2.6054688
-0.39404297 0.83935547 -2.6035156
-0.3815918 0.83886719 -2.6015625
-0.36914062 0.83837891 -2.5996094
-0.35668945 0.83789062 -2.5976562
-0.34423828 0.83691406 -2.5957031
-0.33178711 0.8359375 -2.59375
-0.31933594 0.83544922 -2.5917969
-0.30712891 0.83496094 -2.5898438
-0.29492188 0.83447266 -2.5878906
-0.28295898 0.83496094 -2.5898438
-0.27099609 0.83544922 -2.5917969
-0.2590332 0.8359375 -2.59375
-0.24719238 0.83691406 -2.5957031
-0.23510742 0.83691406 -2.5957031
-0.22302246 0.83740234 -2.5976562
-0.2109375 0.83740234 -2.5976562
-0.19848633 0.83642578 -2.59375
-0.18615723 0.83496094 -2.5898438
-0.17358398 0.83300781 -2.5839844
-0.16125488 0.83154297 -2.5800781
-0.14880371 0.82958984 -2.5722656
-0.13659668 0.828125 -2.5683594
-0.12426758 0.82617188 -2.5625
0.033050537 0.23681641 -0.73486328
0.036468506 0.23681641 -0.73486328
0.039916992 0.23681641 -0.73486328
0.043334961 0.23681641 -0.73486328
0.046783447 0.23681641 -0.73486328
0.050140381 0.23657227 -0.73339844
0.053588867 0.23657227 -0.73339844
0.057006836 0.23657227 -0.73339844
0.060424805 0.23657227 -0.73339844
0.063842773 0.23657227 -0.73339844
0.067199707 0.23620605 -0.73242188
0.070617676 0.23620605 -0.73242188
0.074035645 0.23620605 -0.73242188
0.077453613 0.23620605 -0.73242188
0.080871582 0.23620605 -0.73242188
0.084289551 0.23620605 -0.73242188
0.08770752 0.23620605 -0.73242188
0.091186523 0.23620605 -0.73242188
0.094726562 0.23657227 -0.73339844
0.098144531 0.23657227 -0.73339844
0.1015625 0.23657227 -0.73339844
0.10516357 0.23681641 -0.73486328
0.10858154 0.23681641 -0.73486328
0.11199951 0.23681641 -0.73486328
0.11547852 0.23681641 -0.73486328
0.11871338 0.23657227 -0.73339844
0.12213135 0.23657227 -0.73339844
0.12561035 0.23657227 -0.73339844
0.12878418 0.23620605 -0.73242188
0.13208008 0.23583984 -0.73144531
0.16308594 0.23620605 -0.73242188
0.16625977 0.23583984 -0.73144531
0.16967773 0.23583984 -0.73144531
0.1730957 0.23583984 -0.73144531
0.17675781 0.23620605 -0.73242188
0.18017578 0.23620605 -0.73242188
0.18359375 0.23620605 -0.73242188
0.18701172 0.23620605 -0.73242188
0.19042969 0.23620605 -0.73242188
0.19384766 0.23620605 -0.73242188
0.19726562 0.23620605 -0.73242188
0.20043945 0.23583984 -0.73144531
0.20385742 0.23583984 -0.73144531
0.20703125 0.2355957 -0.73046875
0.21044922 0.2355957 -0.73046875
0.21350098 0.23522949 -0.72949219
0.21691895 0.23522949 -0.72949219
0.25268555 0.23681641 -0.73486328
0.25585938 0.23657227 -0.73339844
0.25927734 0.23657227 -0.73339844
0.26269531 0.23657227 -0.73339844
0.26611328 0.23657227 -0.73339844
0.26953125 0.23657227 -0.73339844
0.27294922 0.23657227 -0.73339844
0.27636719 0.23657227 -0.73339844
0.27978516 0.23657227 -0.73339844
0.28320312 0.23657227 -0.73339844
0.28662109 0.23657227 -0.73339844
0.29003906 0.23657227 -0.73339844
0.29321289 0.23620605 -0.73242188
0.29663086 0.23620605 -0.73242188
0.30004883 0.23620605 -0.73242188
0.30297852 0.23583984 -0.73144531
0.30639648 0.23583984 -0.73144531
0.30981445 0.23583984 -0.73144531
0.31323242 0.23583984 -0.73144531
0.31665039 0.23583984 -0.73144531
0.32006836 0.23583984 -0.73144531
0.32348633 0.23583984 -0.73144531
0.3269043 0.23583984 -0.73144531
0.33081055 0.23620605 -0.73242188
0.33422852 0.23620605 -0.73242188
0.33764648 0.23620605 -0.73242188
0.34106445 0.23620605 -0.73242188
0.34448242 0.23620605 -0.73242188
0.34790039 0.23620605 -0.73242188
0.35131836 0.23620605 -0.73242188
0.35424805 0.23583984 -0.73144531
0.35766602 0.23583984 -0.73144531
0.36108398 0.23583984 -0.73144531
0.36450195 0.23583984 -0.73144531
0.36791992 0.23583984 -0.73144531
0.37133789 0.23583984 -0.73144531
0.37475586 0.23583984 -0.73144531
0.37817383 0.23583984 -0.73144531
0.3815918 0.23583984 -0.73144531
0.38452148 0.2355957 -0.73046875
0.38793945 0.2355957 -0.73046875
0.39135742 0.2355957 -0.73046875
0.39477539 0.2355957 -0.73046875
0.39819336 0.2355957 -0.73046875
0.40161133 0.2355957 -0.73046875
0.4050293 0.2355957 -0.73046875
0.40844727 0.2355957 -0.73046875
0.41186523 0.2355957 -0.73046875
0.4152832 0.2355957 -0.73046875
0.41918945 0.23583984 -0.73144531
0.42260742 0.23583984 -0.73144531
0.42602539 0.23583984 -0.73144531
0.42944336 0.23583984 -0.73144531
0.43286133 0.23583984 -0.73144531
0.4362793 0.23583984 -0.73144531
0.43969727 0.23583984 -0.73144531
0.44262695 0.2355957 -0.73046875
0.44604492 0.2355957 -0.73046875
0.46166992 0.23657227 -0.73339844
0.46508789 0.23657227 -0.73339844
0.46777344 0.23620605 -0.73242188
0.41845703 0.19958496 -0.61914062
0.4206543 0.19934082 -0.61816406
0.42358398 0.19934082 -0.61816406
0.42578125 0.19897461 -0.6171875
0.42797852 0.1986084 -0.61621094
0.4309082 0.1986084 -0.61621094
0.43310547 0.19836426 -0.61523438
0.43530273 0.19799805 -0.61425781
0.4375 0.19763184 -0.61328125
0.43945312 0.1973877 -0.61230469
0.44165039 0.19702148 -0.61132812
0.44384766 0.19665527 -0.61035156
0.44604492 0.19641113 -0.609375
0.44799805 0.19604492 -0.60791016
0.45019531 0.19567871 -0.60693359
0.45214844 0.19543457 -0.60595703
0.4543457 0.19506836 -0.60498047
0.45629883 0.19482422 -0.60400391
0.45849609 0.19445801 -0.60302734
0.46044922 0.1940918 -0.60205078
0.46264648 0.19384766 -0.60107422
0.46386719 0.19311523 -0.59912109
0.46582031 0.19287109 -0.59814453
0.46777344 0.19250488 -0.59716797
0.46972656 0.19213867 -0.59619141
0.47192383 0.19189453 -0.59521484
0.47387695 0.19152832 -0.59423828
0.47583008 0.19116211 -0.59326172
0.4777832 0.19091797 -0.59228516
0.47973633 0.19055176 -0.59130859
0.48168945 0.19018555 -0.58984375
0.48364258 0.18994141 -0.58886719
0.4855957 0.1895752 -0.58789062
0.48730469 0.18920898 -0.58691406
0.48925781 0.18896484 -0.5859375
0.49121094 0.18859863 -0.58496094
0.49316406 0.18835449 -0.58398438
0.49487305 0.18798828 -0.58300781
0.49682617 0.18762207 -0.58203125
0.4987793 0.18737793 -0.58105469
0.50048828 0.18701172 -0.58007812
0.50244141 0.18664551 -0.57910156
0.50390625 0.18640137 -0.578125
0.50585938 0.18603516 -0.57714844
0.50878906 0.18603516 -0.57714844
0.51025391 0.18566895 -0.57617188
0.51220703 0.1854248 -0.57519531
0.51416016 0.18505859 -0.57421875
0.515625 0.18469238 -0.57275391
0.51757812 0.18444824 -0.57177734
0.51953125 0.18408203 -0.57080078
0.52099609 0.18371582 -0.56982422
0.52294922 0.18347168 -0.56884766
0.52441406 0.18310547 -0.56787109
0.52636719 0.18273926 -0.56689453
0.52783203 0.18249512 -0.56591797
0.52978516 0.18212891 -0.56494141
0.53125 0.1817627 -0.56396484
0.53320312 0.18151855 -0.56298828
0.53466797 0.18115234 -0.56201172
0.53759766 0.18115234 -0.56201172
0.5390625 0.1809082 -0.56103516
0.54052734 0.18054199 -0.56005859
0.54248047 0.18017578 -0.55908203
0.54394531 0.17993164 -0.55810547
0.54638672 0.17993164 -0.55810547
0.54833984 0.17956543 -0.55712891
0.55078125 0.17956543 -0.55712891
-2.4140625 0.8359375 -2.6308594
-2.4023438 0.8359375 -2.6308594
-2.390625 0.83642578 -2.6328125
-2.3789062 0.83642578 -2.6328125
-2.3691406 0.83740234 -2.6347656
-2.3574219 0.83740234 -2.6367188
-2.3457031 0.83789062 -2.6367188
-2.3339844 0.83789062 -2.6367188
-2.3203125 0.83740234 -2.6367188
-2.3066406 0.83740234 -2.6347656
-2.2929688 0.83642578 -2.6328125
-2.2792969 0.8359375 -2.6308594
-2.265625 0.83544922 -2.6289062
-2.2519531 0.83496094 -2.6269531
-2.2382812 0.83447266 -2.6269531
-2.2246094 0.83398438 -2.625
-2.2128906 0.83398438 -2.625
-2.2011719 0.83447266 -2.6269531
-2.1894531 0.83496094 -2.6269531
-2.1777344 0.83496094 -2.6269531
-2.1660156 0.83496094 -2.6269531
-2.1523438 0.83496094 -2.6269531
-2.140625 0.83496094 -2.6269531
-2.1269531 0.83447266 -2.6269531
-2.1152344 0.83447266 -2.6269531
-2.1015625 0.83398438 -2.625
-2.0898438 0.83398438 -2.625
-2.078125 0.83398438 -2.625
-2.0664062 0.83398438 -2.625
-2.0527344 0.83398438 -2.625
-2.0410156 0.83398438 -2.625
-2.0292969 0.83398438 -2.625
-2.015625 0.83398438 -2.625
-2.0039062 0.83398438 -2.625
-1.9912109 0.83349609 -2.6230469
-1.9775391 0.83300781 -2.6210938
-1.9638672 0.83203125 -2.6191406
-1.9492188 0.83154297 -2.6171875
-1.9355469 0.83105469 -2.6152344
-1.9228516 0.83056641 -2.6132812
-1.9091797 0.83007812 -2.6113281
-1.8974609 0.83007812 -2.6113281
-1.8857422 0.83007812 -2.6132812
-1.8730469 0.83007812 -2.6132812
-1.8623047 0.83056641 -2.6132812
-1.8505859 0.83105469 -2.6152344
-1.8388672 0.83105469 -2.6171875
-1.8271484 0.83154297 -2.6171875
-1.8154297 0.83203125 -2.6191406
-1.8037109 0.83203125 -2.6191406
-1.7919922 0.83203125 -2.6191406
-1.7792969 0.83203125 -2.6191406
-1.7666016 0.83203125 -2.6191406
-1.7539062 0.83154297 -2.6171875
-1.7412109 0.83154297 -2.6171875
-1.7294922 0.83154297 -2.6171875
-1.7167969 0.83154297 -2.6171875
-1.7060547 0.83203125 -2.6191406
-1.6943359 0.83251953 -2.6210938
-1.6826172 0.83300781 -2.6210938
-1.671875 0.83300781 -2.6230469
-1.6601562 0.83349609 -2.6230469
-1.6474609 0.83349609 -2.6230469
-1.6357422 0.83398438 -2.625
-1.6240234 0.83398438 -2.625
-1.6103516 0.83349609 -2.6230469
-1.5976562 0.83300781 -2.6230469
-1.5849609 0.83300781 -2.6210938
-1.5722656 0.83251953 -2.6210938
-1.5585938 0.83203125 -2.6191406
-1.5449219 0.83105469 -2.6171875
-1.5322266 0.83105469 -2.6152344
-1.5195312 0.83007812 -2.6132812
-1.5058594 0.83007812 -2.6113281
-1.4931641 0.82958984 -2.6113281
-1.4804688 0.82910156 -2.609375
-1.4677734 0.82910156 -2.609375
-1.4550781 0.82861328 -2.6074219
-1.4423828 0.82861328 -2.6074219
-1.4306641 0.82861328 -2.6074219
-1.4179688 0.82861328 -2.6074219
-1.4052734 0.828125 -2.6054688
-1.3935547 0.828125 -2.6054688
-1.3808594 0.82763672 -2.6054688
-1.3681641 0.82763672 -2.6054688
-1.3554688 0.82763672 -2.6035156
-1.34375 0.82763672 -2.6054688
-1.3320312 0.82763672 -2.6054688
-1.3203125 0.82861328 -2.6074219
-1.3095703 0.82910156 -2.609375
-1.2988281 0.83007812 -2.6113281
-1.2880859 0.83105469 -2.6152344
-1.2773438 0.83203125 -2.6191406
-1.2666016 0.83300781 -2.6210938
-1.2548828 0.83349609 -2.6230469
-1.2431641 0.83398438 -2.625
-1.2314453 0.83398438 -2.625
-1.21875 0.83398438 -2.625
-1.2070312 0.83398438 -2.625
-1.1943359 0.83398438 -2.625
-1.1816406 0.83349609 -2.6230469
-1.1679688 0.83300781 -2.6210938
-1.1552734 0.83203125 -2.6191406
-1.1416016 0.83154297 -2.6171875
-1.1289062 0.83105469 -2.6152344
-1.1162109 0.83056641 -2.6132812
-1.1035156 0.83007812 -2.6113281
-1.0908203 0.82958984 -2.6113281
-1.078125 0.82958984 -2.6113281
-1.0654297 0.82910156 -2.609375
-1.0537109 0.82910156 -2.609375
-1.0410156 0.82910156 -2.609375
-1.0283203 0.82861328 -2.6074219
-1.015625 0.828125 -2.6054688
-1.0019531 0.82763672 -2.6035156
-0.98974609 0.82666016 -2.6015625
-0.97705078 0.82617188 -2.5996094
-0.96386719 0.82568359 -2.5976562
-0.95166016 0.82568359 -2.5976562
-0.93945312 0.82568359 -2.5976562
-0.92822266 0.82617188 -2.5996094
-0.91699219 0.82666016 -2.6015625
-0.90527344 0.82763672 -2.6035156
-0.89355469 0.828125 -2.6054688
-0.88232422 0.82861328 -2.6074219
-0.87060547 0.82910156 -2.609375
-0.85839844 0.82910156 -2.609375
-0.84716797 0.83007812 -2.6113281
-0.83544922 0.83056641 -2.6132812
-0.82373047 0.83105469 -2.6152344
-0.81201172 0.83154297 -2.6171875
-0.80078125 0.83251953 -2.6210938
-0.7890625 0.83300781 -2.6230469
-0.77734375 0.83398438 -2.625
-0.76513672 0.83398438 -2.625
-0.75292969 0.83398438 -2.625
-0.74072266 0.83398438 -2.625
-0.72802734 0.83349609 -2.6230469
-0.71484375 0.83251953 -2.6210938
-0.70166016 0.83105469 -2.6171875
-0.68847656 0.83007812 -2.6132812
-0.67529297 0.82910156 -2.609375
-0.66259766 0.82861328 -2.6074219
-0.64990234 0.828125 -2.6054688
-0.63769531 0.828125 -2.6054688
-0.62597656 0.82861328 -2.6074219
-0.61376953 0.82861328 -2.6074219
-0.6015625 0.82861328 -2.6074219
